0.467035 4.978140 7.059352
3.093484 3.928149 5.364823
-4.529600 -2.117245 1.229273
4.695785 -1.717441 4.554702
2.865255 -4.097599 2.720110
3.632919 -3.435389 0.673659
0.001746 5.000000 4.057623
-4.726781 1.630196 0.739294
-0.964517 4.906089 8.667711
-2.654502 -4.237171 6.237345
-4.683525 -1.750597 2.004152
-4.090733 -2.875048 2.661546
1.716444 4.696149 3.259714
-4.433037 -2.312613 7.505536
4.170781 -2.757642 2.067554
3.274161 3.778871 9.738218
4.359757 -2.447962 9.773563
3.454842 -3.614425 2.428012
3.162119 3.873113 1.808071
-3.018170 -3.986308 0.910429
2.839612 4.115410 2.857781
-4.320174 -2.517160 1.879880
2.954874 -4.033450 0.844226
0.171021 4.997074 2.890049
4.717695 1.656307 2.935081
-4.448262 -2.283192 8.283751
2.116263 -4.530059 6.511733
-1.235367 4.844984 2.695082
4.487150 -2.205785 0.777839
-4.984443 0.394121 4.987617
-3.768380 -3.286231 9.227526
2.011506 4.577537 5.513422
-2.397039 -4.387961 0.322102
4.532095 -2.111897 8.635295
2.102841 -4.536305 3.349755
-3.789929 -3.261355 9.011373
1.386780 4.803836 8.430731
4.314563 -2.526766 3.895616
-1.049241 4.888670 1.005145
-4.994796 0.228054 2.319952
0.225259 4.994923 9.726023
0.896459 4.918980 5.426237
4.663807 -1.802471 0.886513
-0.330134 4.989089 5.270624
4.628095 -1.892282 9.704130
0.695989 4.951323 5.456796
-1.715473 4.696504 3.965826
-4.790736 -1.431380 0.767350
-4.435154 -2.308551 0.130256
1.953893 -4.602424 6.560877
-4.463655 2.252949 7.280148
0.631132 4.960007 3.817933
3.136687 3.893738 9.749334
3.442250 3.626419 0.096084
4.528714 2.119138 9.190551
-2.020508 -4.573570 0.027732
1.050802 4.888334 3.761706
-4.986279 0.370166 4.478146
-1.381117 -4.805467 5.547894
3.578208 3.492338 8.227835
4.966019 -0.581938 7.773390
4.892387 1.031771 9.979803
-4.677601 1.766365 6.636284
4.952041 -0.690859 3.382499
-4.872130 -1.123543 4.679580
3.087392 -3.932939 9.180484
-0.353205 4.987509 0.772753
-1.786400 -4.669987 5.381404
0.517226 4.973176 2.935640
-4.920434 -0.888442 1.612877
-4.789082 -1.436903 8.658007
4.449634 2.280517 3.669103
3.511530 -3.559376 8.282110
-4.547191 -2.079196 1.192203
-0.976835 -4.903651 1.503773
3.936718 3.082572 4.773056
-4.935954 -0.797723 7.028654
-4.762058 1.524074 6.961416
4.118311 2.835404 6.953069
-4.525027 2.127000 6.242855
-4.825342 1.309992 1.947954
-4.973165 0.517330 4.650057
4.936979 -0.791353 3.368415
-2.558551 -4.295791 5.007503
2.685939 4.217313 6.405669
-1.054205 -4.887602 5.334203
-3.746347 3.311327 9.613394
-0.846375 4.927844 3.318995
2.124270 4.526309 3.409443
-3.940273 3.078026 7.749377
-1.565762 -4.748515 4.002831
-4.384347 -2.403644 9.248714
-1.867140 -4.638296 2.740867
4.605045 1.947706 4.204034
-1.041411 -4.890344 9.951878
4.971063 -0.537152 3.150797
-4.428901 -2.320526 7.916406
-2.517810 4.319796 0.253802
4.954465 0.673257 8.921346
4.259518 -2.618493 8.167058
-4.434277 -2.310236 4.673042
1.732383 -4.690293 1.389787
-3.413975 3.653050 2.381649
3.312020 3.745734 2.684136
-0.174022 -4.996971 8.380227
-4.992865 -0.267017 7.136949
-1.145181 -4.867090 5.837573
-4.996658 0.182777 1.693930
-4.041412 2.943975 6.149835
4.259907 2.617860 3.144821
-4.837448 1.264556 2.835638
4.881222 1.083360 8.523729
-4.991579 0.290059 9.610459
-4.608253 -1.940105 8.076543
-4.015625 2.979053 1.870135
4.999986 0.011699 7.192284
1.165506 -4.862262 1.831464
4.975292 0.496458 0.095624
4.178466 -2.745983 6.872304
-4.004699 2.993724 5.510754
4.540980 -2.092725 6.829954
-1.498598 -4.770137 7.304447
0.471071 4.977760 1.926887
2.035806 -4.566781 4.245854
1.929536 4.612688 4.469543
-0.395652 -4.984321 2.204977
-0.274211 4.992475 3.503533
-0.872792 4.923234 3.309250
-4.760068 1.530280 4.328406
2.063887 4.554160 3.760232
0.812609 4.933525 2.687660
-4.997535 -0.156990 9.923751
4.110503 2.846711 7.036361
-0.438899 4.980699 1.248675
3.445037 -3.623772 5.580862
-4.886014 -1.061539 4.824767
4.596200 1.968489 2.522997
-1.926902 -4.613789 9.640472
4.494765 -2.190225 0.450776
-1.633145 -4.725763 5.092158
-4.578358 2.009637 7.655411
4.661853 1.807521 7.988020
3.354123 3.708080 6.750470
0.363199 -4.986791 5.381596
4.942501 0.756098 8.166435
3.569755 3.500978 2.656598
3.024865 -3.981230 8.736094
-3.272280 3.780500 6.534376
-4.843526 -1.241070 9.101555
4.922979 0.874227 5.440697
-4.674769 -1.773847 5.668560
-0.445148 -4.980145 2.041009
4.697608 1.712447 2.251563
4.130426 -2.817726 4.114928
0.326049 -4.989358 1.107791
3.424307 -3.643366 9.244720
-4.559008 2.053155 9.312670
-0.345659 4.988038 1.800372
2.196036 -4.491929 9.124140
2.646344 4.242271 6.818397
4.083162 2.885790 6.263328
-1.673785 4.711522 4.993420
4.963231 0.605261 9.476598
-4.577391 -2.011837 4.908857
-2.915298 4.062147 5.199920
4.285074 -2.576460 1.179939
-2.577924 4.284193 9.479368
-0.719050 -4.948027 8.150929
-3.628595 3.439957 7.309626
-1.513180 4.765531 4.122707
0.251233 -4.993684 9.870552
-3.980731 -3.025522 2.449565
-4.202119 -2.709648 0.867960
2.246660 -4.466824 9.200362
2.205232 -4.487421 1.132738
-4.268498 2.603828 0.105822
3.219965 3.825157 6.311440
4.273449 -2.595695 7.360671
-4.907693 -0.956321 1.766853
-3.470556 -3.599339 2.148950
-0.257536 4.993363 3.451591
2.899049 4.073759 6.519383
4.479560 2.221157 5.561189
4.914714 -0.919560 4.296808
4.998273 0.131420 7.096744
-1.172579 -4.860562 0.104462
1.358763 -4.811836 0.372012
1.263395 -4.837751 0.378536
3.951380 -3.063755 3.371778
-4.925283 0.861154 5.608537
1.841564 4.648510 1.308134
-0.990729 4.900863 6.183892
0.724658 -4.947208 5.632570
-1.792946 4.667477 0.429775
3.343366 -3.717782 4.438373
-4.367189 2.434679 0.086547
-2.735931 4.185055 0.717551
-2.448969 4.359191 4.167581
3.839328 -3.203055 1.843436
-0.776543 -4.939330 5.822388
-0.462218 4.978590 1.279623
-4.745699 -1.574274 0.109091
-3.608022 3.461528 8.470762
2.567308 -4.290563 4.046577
4.222072 -2.678452 0.694985
4.655664 1.823401 1.569056
3.213983 3.830185 4.787661
1.608159 4.734324 6.614064
3.758142 -3.297934 7.130419
4.947224 -0.724554 1.935446
-4.518505 -2.140820 6.934120
-2.431861 4.368759 7.084820
0.691806 4.951909 2.859167
-4.739365 -1.593242 1.144620
-2.875680 4.090289 0.271414
-1.053754 4.887699 0.640366
4.745237 -1.575666 7.988870
4.952781 -0.685536 1.039628
-1.989011 -4.587356 0.149376
-3.783612 -3.268682 6.251103
-4.194854 -2.720882 0.561786
-4.792955 -1.423932 5.490519
4.925748 0.858489 4.890605
-2.495810 4.332543 2.427710
-4.151900 2.785988 7.075396
-4.258902 2.619495 4.437649
1.459040 -4.782385 2.173248
-4.821672 1.323434 1.554904
2.063258 4.554445 4.206525
-1.639320 -4.723625 1.614250
-1.990189 4.586845 6.736331
-1.977155 4.592478 1.946312
-3.742524 3.315647 7.024329
-0.820634 -4.932196 0.680198
-3.955646 -3.058246 4.592224
1.242649 4.843121 3.060791
-2.365905 4.404826 1.953159
1.166376 -4.862054 9.563191
1.342711 -4.816340 0.049825
-3.662448 -3.403891 0.484881
2.855131 -4.104659 4.125809
-0.047093 4.999778 7.870630
-4.941438 0.763014 6.102725
-4.958599 -0.642103 0.371144
0.843357 4.928362 1.728602
4.897295 1.008217 9.337735
1.540211 -4.756863 7.392624
-2.028354 -4.570096 1.694601
4.415930 -2.345115 9.546409
-4.150513 2.788054 2.076447
-4.905508 0.967466 6.615835
4.859592 -1.176590 8.715369
-4.873056 1.119520 1.853274
0.658613 4.956433 0.876501
1.297191 4.828798 4.579412
2.960505 4.029319 2.172639
2.546965 -4.302670 3.692686
-1.581608 4.743260 1.203338
3.944167 -3.073036 1.171195
-2.985906 4.010532 3.029633
-4.450777 2.278286 2.925408
4.807551 -1.373846 6.259245
3.033757 -3.974458 3.049738
4.852650 -1.204903 2.145890
2.560113 4.294860 3.122286
0.476944 -4.977200 6.794897
4.371404 -2.427102 6.567250
-2.059740 -4.556037 3.374622
4.810396 1.363852 7.969732
-0.478588 4.977043 5.155846
-0.362408 -4.986849 1.827580
-1.807734 4.661770 8.976968
-3.514023 -3.556914 3.136654
-4.957657 -0.649335 1.826385
4.449872 2.280053 3.456766
4.990327 -0.310857 4.862345
2.129222 -4.523982 4.888562
4.177379 -2.747636 6.956002
-4.948422 -0.716326 2.195978
2.149470 4.514397 4.301585
0.587078 -4.965414 6.062326
-2.192011 4.493895 9.685049
3.273159 3.779739 0.008678
-0.405637 4.983519 1.237251
4.986199 -0.371239 3.530750
1.946963 -4.605359 4.296376
-4.733367 1.610973 5.774686
1.138070 4.868757 6.063292
2.517883 -4.319753 2.727511
2.465941 -4.349613 2.393738
-0.764769 4.941167 8.093526
-4.216713 2.686882 6.101477
4.793012 -1.423741 9.315597
4.191963 2.725333 1.224299
4.859477 1.177066 9.879534
4.753119 1.551729 9.904691
2.205347 -4.487365 3.270883
-4.229881 2.666104 7.716728
-4.220864 2.680356 2.468690
4.248327 -2.636611 3.680988
-4.990459 0.308738 0.012368
-2.420396 4.375121 3.905875
-4.442650 -2.294093 3.423900
-1.168543 4.861533 1.232691
-4.884872 -1.066782 5.876554
-2.202052 4.488983 5.567190
-3.483830 3.586493 4.509179
-0.452330 4.979498 1.408335
4.092890 2.871977 3.923043
-3.403720 -3.662607 3.923144
0.720809 -4.947771 6.793399
0.288874 4.991648 8.008789
-2.808314 4.136831 2.305915
-2.594354 -4.274263 1.411174
-2.447620 4.359949 5.473885
-0.795236 -4.936355 5.745782
4.780204 1.466168 8.211380
-3.685575 3.378837 7.838890
4.196997 -2.717576 8.791941
-1.026659 4.893462 1.697516
-1.464341 -4.780764 2.453316
4.216866 2.686641 7.542925
-2.287655 -4.445969 7.189378
3.942957 -3.074588 3.753630
-2.411072 4.380266 5.445566
-3.047660 -3.963808 5.674717
3.583148 -3.487269 5.460317
-1.255461 4.839816 3.776538
4.908297 -0.953216 1.275938
-0.687705 4.952480 9.716685
2.912430 4.064203 8.560901
2.834524 4.118917 3.864132
-3.374036 3.689970 3.396454
2.058582 -4.556560 5.628621
3.394468 -3.671184 5.123860
-1.627563 4.727688 7.943781
-4.847802 -1.224261 1.903675
2.374724 4.400078 5.534814
2.055324 4.558031 8.950482
-4.916121 -0.912007 8.577839
2.973343 -4.019855 6.720527
0.501498 -4.974786 2.780982
-0.678027 -4.953815 3.635931
4.003011 -2.995982 1.098891
3.066429 3.949306 9.003400
0.146125 -4.997864 2.324820
4.956458 -0.658429 6.782492
-0.332915 4.988904 6.732136
4.809408 1.367330 7.877279
-0.788637 4.937413 1.035798
2.646028 4.242468 9.243026
1.475583 -4.777306 6.394380
-2.499702 4.330299 7.245710
3.227422 3.818868 8.493805
-3.902619 3.125630 7.313790
-2.170962 -4.504101 1.175780
3.821400 3.224422 9.198942
-4.998812 -0.109001 2.790740
1.822067 -4.656186 0.338711
2.718236 -4.196569 0.603791
1.454364 4.783809 1.142116
4.107750 2.850682 9.489614
-3.265386 3.786457 9.541736
-4.306250 2.540908 7.779573
-3.765950 -3.289015 0.437863
2.758736 4.170057 3.011472
4.333613 2.493953 0.079551
0.599584 4.963920 2.838215
-4.522870 -2.131584 5.563746
4.946769 0.727652 2.647345
-3.365564 3.697699 4.761883
4.918723 0.897866 5.709548
4.642051 -1.857786 9.423136
4.969874 -0.548041 8.374460
-0.181147 -4.996717 5.280619
-4.456306 -2.267452 1.847939
-2.837599 4.116799 7.593892
-2.295134 4.442112 2.612611
-3.163160 -3.872263 3.804049
2.899204 4.073649 8.161197
-1.563500 4.749260 2.137909
-0.639925 4.958880 1.710637
3.962501 -3.049358 6.517735
-4.777952 1.473490 5.102498
-3.803253 3.245808 0.528744
-4.909000 0.949590 6.780492
4.442262 2.294844 2.456557
-4.900370 -0.993161 5.442776
4.693500 -1.723676 1.533136
-4.984410 -0.394528 9.180096
-2.019801 -4.573883 8.821024
4.840422 1.253122 8.866127
2.623069 -4.256701 5.945484
-4.999974 -0.016236 0.559984
-1.433598 4.790073 5.806284
-0.984763 -4.902065 2.026855
-1.759898 4.680038 5.783472
-4.979983 0.446954 3.260481
-4.763903 1.518298 8.832308
-3.463032 3.606579 5.122865
-1.912320 4.619852 3.045787
4.898903 1.000373 1.705013
4.102208 2.858652 2.989095
3.814140 -3.233007 8.818701
1.819877 -4.657043 5.834856
-3.741984 -3.316257 0.436692
-0.817701 4.932683 7.345181
0.192555 4.996291 6.408878
4.990639 -0.305821 7.229276
-4.954488 -0.673091 8.556493
-4.859074 1.178727 8.741949
2.091153 4.541705 9.129095
-3.580220 3.490276 5.311761
-2.382736 4.395744 9.064260
0.391315 4.984664 0.166348
-1.385842 -4.804107 3.366919
4.277302 -2.589341 9.823014
-1.584573 -4.742270 5.245946
4.374221 2.422022 2.315572
3.633755 -3.434505 8.338188
-0.175398 -4.996923 4.636583
3.605444 -3.464214 6.781928
-4.903344 0.978374 7.623149
-2.113566 -4.531318 2.034124
-0.518248 4.973069 2.376599
2.295842 4.441746 8.902348
-4.709816 1.678581 8.391255
-1.589685 4.740559 1.268519
-4.252483 2.629902 9.766505
0.888460 -4.920431 5.368741
-1.203157 -4.853083 1.248223
1.051125 -4.888265 7.171700
4.990449 -0.308902 3.191458
-0.978559 4.903307 8.567055
-0.035518 -4.999874 3.657305
-0.597510 4.964170 1.251150
-1.603712 4.735832 3.402816
-4.969575 0.550751 8.408803
-1.255525 -4.839799 5.255210
-2.786511 4.151549 1.002822
-0.169198 4.997136 3.316364
3.077295 3.940844 8.806927
-4.330250 2.499787 0.289865
4.809947 -1.365433 9.977593
-0.207766 -4.995681 2.251697
3.458232 3.611182 3.303873
4.038845 -2.947495 7.607655
-4.760006 1.530473 1.695558
4.723059 1.640950 4.249081
-0.912973 4.915941 6.898427
2.597140 -4.272571 2.505090
-3.312099 3.745664 8.254732
-0.448834 4.979814 6.562011
-1.731133 4.690754 9.455150
-1.663536 4.715151 6.309125
4.923393 0.871892 2.657863
-4.228337 -2.668552 7.999756
4.939446 -0.775807 3.359414
-4.732419 1.613757 4.543657
-4.995865 -0.203293 1.887786
-1.522436 4.762582 7.466105
4.990632 -0.305934 5.299059
4.997504 -0.157956 5.130988
4.801864 1.393593 6.402446
-4.987240 -0.356988 6.109447
-2.356831 -4.409688 1.751259
-4.907923 0.955142 6.586649
-2.609920 -4.264777 8.403132
-4.994607 0.232170 3.503435
-2.307287 4.435812 5.121923
1.955220 -4.601860 3.462822
1.026895 -4.893413 5.489414
1.724110 4.693340 5.995095
-1.642206 4.722622 9.781845
0.162251 4.997367 7.816884
4.150068 -2.788715 5.163115
4.391323 -2.390876 8.019377
0.180005 4.996759 7.805554
-0.596598 4.964280 3.356885
-2.231890 4.474222 8.360169
-4.276543 2.590594 4.603172
3.919487 3.104452 4.394956
-1.004712 4.898015 5.771639
3.619723 -3.449290 3.432393
4.566626 -2.036155 9.122284
1.051580 -4.888167 2.339609
4.820638 1.327196 7.014040
-1.674823 -4.711154 2.396984
-4.927438 0.848738 7.990365
2.819158 -4.129449 4.964240
4.999912 0.029732 8.873748
0.055851 4.999688 8.128905
-1.091572 4.879392 1.586541
4.015941 2.978627 7.014119
-4.978781 0.460149 7.839616
0.915942 4.915389 6.450232
4.909815 -0.945365 4.423984
-1.031174 4.892513 3.334617
-0.887118 -4.920673 0.753386
3.814248 -3.232880 3.129653
4.807749 1.373153 0.979000
3.131006 3.898307 2.113085
0.845061 4.928070 8.498236
4.812738 1.355563 0.857190
-4.911170 0.938302 0.437810
-3.472400 -3.597560 2.466209
-0.190014 -4.996388 1.129950
3.842985 -3.198667 4.548789
-4.769422 1.500870 8.789627
-4.796968 1.410353 2.100285
-0.706891 -4.949778 2.076413
4.088755 2.877861 3.986904
-0.906840 4.917077 6.528054
-4.664949 1.799513 2.629436
4.096972 -2.866151 2.533161
-4.570836 2.026687 5.065284
0.057620 -4.999668 8.563043
4.849590 1.217160 5.986779
4.591592 1.979212 3.582591
-3.678568 3.386463 1.458608
2.626897 -4.254340 7.954124
-3.287779 3.767029 8.375858
-4.137753 -2.806956 7.253605
-2.369694 4.402789 8.649041
-3.067382 -3.948566 8.741484
-4.625788 -1.897916 9.060678
4.570413 -2.027641 5.421847
2.325909 -4.426076 9.689414
-0.467455 4.978101 9.938854
4.962664 0.609887 1.819669
3.583274 -3.487140 0.327621
4.675207 -1.772693 1.262703
-0.706765 -4.949796 0.427097
0.638885 -4.959015 3.560673
4.761807 1.524859 9.856495
2.637657 -4.247678 8.295508
-3.066348 -3.949369 0.736034
3.853786 3.185645 9.624396
-2.295722 -4.441808 1.717763
0.984189 -4.902180 7.894021
-0.060793 4.999630 0.308066
-4.911363 0.937293 5.479398
-1.235069 -4.845060 2.678736
2.309411 4.434706 7.552516
-2.216970 -4.481634 5.116871
-2.101510 -4.536922 4.391005
0.106015 -4.998876 3.435474
4.982449 0.418566 3.918817
-4.424154 -2.329562 9.361723
-4.545016 2.083946 9.626401
4.250058 2.633820 6.853003
0.864146 -4.924759 6.069473
-4.162352 2.770347 2.608259
4.926428 -0.854583 5.662914
4.992668 0.270684 7.678005
0.953122 4.908315 4.838983
2.299822 -4.439687 3.012091
-4.451936 2.276019 7.546107
-4.987107 -0.358838 9.489976
0.648437 -4.957775 6.481429
2.095189 -4.539844 1.383510
4.994214 -0.240469 4.189138
1.697964 -4.702863 9.375832
-4.816269 -1.342964 0.239823
-1.780589 4.672205 7.327037
-4.652393 -1.831731 2.661805
4.702854 1.697988 2.273313
2.378767 -4.397894 5.198868
0.868800 -4.923940 0.146104
4.969683 -0.549776 8.491534
1.049717 -4.888568 3.138519
-3.722937 -3.337625 2.739811
-4.716214 1.660521 9.886815
-4.868472 -1.139291 9.399373
-4.999723 -0.052646 9.457128
2.389002 4.392342 1.058219
1.666191 -4.714213 5.771204
0.308802 4.990455 3.694821
-3.879111 -3.154758 8.620919
3.821535 3.224263 7.615953
-4.393378 2.387096 3.251998
-3.080748 -3.938146 2.320250
-4.994921 0.225317 8.520038
-0.757820 4.942237 1.968785
4.989251 -0.327683 4.168244
-3.125749 3.902524 0.081634
4.931484 -0.824902 6.788686
-3.511258 -3.559644 7.877643
4.999957 -0.020720 6.484402
4.380091 -2.411390 6.006847
3.433357 -3.634840 6.651058
-4.979438 0.452984 4.507452
-2.344751 4.416123 0.053385
4.910792 -0.940277 4.433413
-4.313940 2.527830 5.632231
3.908571 3.118184 2.593088
-0.969861 -4.905035 0.385983
-4.013689 2.981660 2.118950
4.108346 -2.849823 6.778095
-2.244203 4.468059 4.697642
1.566820 -4.748165 1.526841
-0.995863 -4.899822 7.731088
-4.874951 -1.111239 7.837633
-2.787056 4.151183 3.774586
0.368427 -4.986408 4.290774
-4.974208 0.507207 0.876291
-2.919170 4.059365 3.101355
4.817416 1.338844 3.069064
1.718036 -4.695567 7.995698
4.917542 -0.904311 7.424206
4.476016 2.228291 7.625393
1.448462 4.785599 2.966945
1.872306 -4.636213 2.321126
-3.927010 3.094930 4.488999
-4.583013 1.998999 6.336603
-1.602853 -4.736123 9.141340
1.936490 4.609773 5.077944
-0.655702 -4.956819 6.328102
4.846105 1.230960 1.331683
4.975305 -0.496323 1.027517
-3.713623 -3.347985 4.533197
4.108487 -2.849620 0.494530
-2.748620 -4.176732 2.917108
3.581095 -3.489378 2.359459
4.685212 1.746079 0.464787
-2.801761 -4.141272 2.228852
0.386559 -4.985035 0.311189
-4.694316 1.721451 3.282164
4.122854 -2.828795 4.786187
2.294040 4.442677 9.624276
-4.599363 1.961086 0.030382
4.853517 -1.201406 7.453267
2.563359 -4.292923 0.920560
-0.197948 -4.996080 4.719243
3.383957 3.680874 4.677263
-1.880633 4.632842 8.950482
4.836638 -1.267648 1.257687
4.336349 -2.489193 7.488484
0.022504 4.999949 0.862695
3.256229 -3.794334 0.118947
2.821448 4.127885 3.499831
-4.655976 1.822605 9.195749
-4.622445 1.906043 8.323283
4.874636 -1.112618 3.484845
1.142394 4.867744 9.427327
1.294343 4.829563 0.916633
-4.751541 1.556553 6.966435
-4.872435 1.122221 8.920475
-1.756637 4.681264 1.083399
0.345664 4.988037 0.648062
4.999123 0.093654 2.491010
-2.663681 4.231407 4.373238
3.969112 -3.040749 6.582655
-4.278976 -2.586575 3.823772
3.001684 -3.998737 5.441675
-4.931303 -0.825987 6.603301
-0.472244 -4.977649 1.624434
-4.715769 -1.661784 7.154128
-3.076512 3.941456 4.001236
-1.467577 -4.779772 8.740663
4.617507 1.917975 0.164559
0.112599 -4.998732 8.240111
4.829258 1.295478 9.524026
0.568928 4.967527 6.820315
-3.717511 -3.343667 6.747625
3.811463 3.236163 5.453217
2.495841 4.332526 5.425264
4.982985 0.412146 2.326650
1.792783 4.667540 6.656217
-4.467962 -2.244397 0.412249
0.763841 -4.941310 9.850699
4.993227 -0.260159 6.356877
-0.233158 -4.994561 5.893886
-3.678608 3.386420 4.082333
4.839396 -1.257077 3.223549
3.291755 -3.763556 8.413186
4.920077 -0.890416 0.185130
0.663516 -4.955779 2.595840
-3.759201 3.296727 7.074700
-2.581550 4.282009 6.265440
-1.274265 4.834899 8.173634
-4.396390 2.381545 5.379770
-2.876156 -4.089954 8.626712
4.688330 -1.737688 5.881730
-4.927574 -0.847948 8.658911
-2.237778 4.471281 4.939230
1.353864 -4.813217 3.367686
-0.006645 4.999996 6.096435
-4.050297 2.931739 5.602172
-4.661993 -1.807157 4.352799
-3.926832 -3.095155 5.717796
-3.417868 -3.649408 3.483336
3.763756 -3.291526 0.769355
-1.762037 -4.679234 7.155389
1.004163 -4.898128 1.793303
-3.475829 -3.594247 2.890014
4.124342 2.826624 1.733844
4.876541 -1.104241 6.150187
-2.697453 -4.209958 9.774298
4.807590 1.373709 4.165146
-4.973731 0.511855 7.229900
-4.121427 -2.830873 0.785367
1.584906 4.742159 3.691144
0.904288 4.917547 9.678207
-4.944813 -0.740824 5.920003
-4.055469 -2.924580 2.854107
-4.463063 2.254123 4.390658
-1.303803 4.827017 6.037965
-2.157186 4.510715 1.658226
-4.350612 2.464178 1.361957
-4.954711 0.671449 9.156681
4.285890 -2.575101 0.238134
-4.997939 0.143537 1.162874
4.233602 2.660191 3.102758
-4.788733 -1.438068 9.751698
-1.947808 -4.605002 4.113222
-4.560591 2.049637 3.851969
-1.580649 -4.743580 8.910790
4.356096 2.454471 8.363360
3.242160 -3.806363 1.126235
-3.762241 -3.293257 2.697535
-4.888945 -1.047960 4.122610
3.018632 -3.985958 2.240093
1.823509 4.655622 9.308509
4.728432 1.625401 3.907032
1.419890 -4.794154 7.275402
1.135590 4.869336 6.217862
2.063062 -4.554533 9.417099
-1.120669 4.872792 4.074956
1.087780 4.880239 5.450412
0.508078 -4.974119 1.545124
1.622038 -4.729587 5.805768
-4.903006 0.980066 5.366606
4.929718 0.835390 3.648584
0.563205 4.968179 6.986712
2.142998 -4.517473 9.746841
-3.803740 3.245237 1.418144
-0.637335 -4.959214 2.393557
-0.861156 4.925283 1.584783
4.975433 -0.495044 5.414881
-3.231401 3.815501 7.060209
3.463869 3.605775 4.596069
1.443759 4.787020 6.791959
0.814418 -4.933226 4.579663
-3.038145 3.971105 1.868456
-2.911729 -4.064706 2.319342
-3.262130 3.789262 6.363469
4.216947 2.686514 9.025277
-4.939365 -0.776319 1.646552
2.955505 4.032988 3.864086
0.239424 4.994264 6.021723
4.605295 -1.947115 8.281381
-0.927596 4.913203 4.775386
3.293257 -3.762241 4.515697
2.134542 4.521474 9.710275
4.186359 -2.733935 6.348398
4.112313 -2.844097 3.666634
0.474871 4.977399 7.256668
-4.881836 -1.080590 9.058619
-1.133887 4.869733 1.870219
-4.947913 -0.719835 1.451200
1.257275 -4.839345 5.127877
4.241896 2.646945 8.579653
4.089048 -2.877445 3.211825
-4.975948 -0.489838 3.765337
-4.912812 -0.929664 4.328499
-2.029235 -4.569705 2.951705
0.940961 -4.910661 5.383406
0.328634 4.989188 9.539390
3.872544 3.162816 9.292121
3.798223 -3.251693 0.151890
-4.454007 2.271963 0.156357
4.180317 -2.743164 1.068937
4.864479 -1.156219 5.780761
-2.273361 -4.453294 0.369975
3.374515 -3.689533 1.457197
-4.722341 1.643014 6.003186
3.577466 3.493099 6.986323
-4.508889 -2.161000 0.782054
-4.822604 1.320033 1.987118
0.163595 -4.997323 3.282769
-0.209233 -4.995620 8.576608
3.664655 -3.401514 3.001537
-3.585997 3.484340 6.211111
2.589976 -4.276917 5.878232
-0.664303 -4.955674 9.424282
-3.998828 -3.001562 2.203054
1.468296 4.779551 3.035072
1.288818 4.831040 4.304619
4.007589 -2.989854 4.927204
3.843664 3.197850 8.384967
1.629672 -4.726962 8.628411
3.938864 -3.079829 4.269690
4.524291 -2.128566 2.256702
-4.998231 0.132988 0.109734
-3.471382 3.598542 6.192701
4.998268 0.131587 8.395356
-2.346638 4.415121 4.689246
2.302902 -4.438090 4.409803
-3.980709 3.025550 4.642392
4.940077 0.771779 0.226436
-4.876448 1.104654 4.157879
2.780579 4.155524 5.003373
-1.509546 -4.766683 9.897683
-3.556837 -3.514101 9.073650
-2.677972 4.222377 4.183782
1.392581 -4.802158 3.563830
0.673652 4.954411 7.906447
-2.913253 -4.063614 2.917026
0.848198 4.927531 8.272153
4.453891 2.272192 5.399932
-3.864872 -3.172186 9.222134
3.272189 -3.780579 8.290374
0.335661 -4.988720 0.398904
4.280281 2.584414 0.736463
1.406804 -4.798010 0.699261
4.917530 -0.904379 9.718829
-2.706583 4.204094 5.495814
4.992094 -0.281070 9.479553
4.140893 -2.802322 6.852238
-3.891077 3.139988 0.442381
4.896191 -1.013565 3.768817
4.594962 -1.971377 4.147973
-4.623819 1.902708 1.901557
-1.161327 -4.863262 5.042004
4.837722 1.263507 7.146234
4.746925 -1.570573 2.702600
-1.290422 4.830612 9.446506
4.716216 -1.660515 5.311777
3.614107 3.455175 9.373162
0.375522 4.985878 8.029422
-1.234855 -4.845114 8.953063
3.648355 3.418992 4.037217
-0.454388 -4.979310 4.497119
-3.682715 -3.381954 8.746618
4.979637 -0.450794 4.252130
4.607553 1.941766 6.419693
1.969448 4.595789 3.861511
4.899263 -0.998612 0.395292
-4.318269 2.520427 2.862362
2.339677 -4.418813 5.408854
-2.006551 -4.579711 1.748897
2.217741 -4.481252 9.980037
3.474462 3.595569 5.351855
4.983090 -0.410873 7.817796
-0.759072 -4.942045 1.731662
-4.766802 1.509173 5.497478
2.847703 -4.109816 8.642872
-2.093728 4.540518 1.098117
-3.139242 -3.891678 2.052748
0.883959 -4.921241 2.376884
4.988563 0.337987 2.463780
4.646673 1.846194 6.848547
4.969006 0.555855 5.961359
-4.303965 -2.544776 5.983252
-4.999056 -0.097167 5.609562
-4.979112 -0.456556 7.794424
3.917467 3.107000 2.077852
3.096545 3.925737 4.041370
3.786545 3.265284 9.934091
1.888037 4.629829 3.841256
4.685578 -1.745096 3.817255
-2.731415 4.188003 2.874518
-0.541846 -4.970554 6.630859
-4.939802 0.773534 0.413070
-4.774157 -1.485742 2.768274
4.881248 -1.083246 7.808870
-4.378844 2.413654 2.670643
3.809705 3.238232 8.360542
0.410480 -4.983122 0.573859
1.795423 4.666525 0.493532
4.982539 -0.417497 1.150603
-4.927964 -0.845677 8.267100
4.683438 1.750831 0.478010
4.769983 -1.499086 8.532443
2.771267 4.161740 3.439336
1.971257 4.595013 8.491218
-4.553717 2.064864 8.027018
-1.099562 -4.877598 1.177941
-2.578986 4.283553 4.137797
3.391255 3.674152 3.950535
4.411767 2.352936 4.549846
-0.431207 4.981371 4.147421
-0.338081 -4.988557 8.955344
2.455687 -4.355411 6.419332
2.287190 4.446208 1.988262
-4.909270 -0.948194 6.255735
-0.345472 4.988051 0.534236
2.307020 -4.435951 9.760501
-3.467682 -3.602108 9.305950
-1.731895 -4.690473 2.618487
-2.294726 -4.442323 1.338279
-4.153782 2.783181 1.643994
-4.265609 2.608559 2.569655
-0.255356 4.993475 6.427584
1.627379 4.727752 7.612214
4.382419 2.407156 3.690023
3.598126 3.471813 4.200925
4.073666 2.899180 6.524256
-4.081717 -2.887834 6.197446
-0.822035 -4.931963 7.075675
3.657763 3.408925 8.788238
2.850449 -4.107912 5.947275
-3.622987 -3.445862 9.796102
-3.689179 3.374902 1.023632
3.291639 3.763656 2.194570
-4.788489 -1.438879 1.868062
2.103196 4.536140 9.041960
4.989057 0.330619 5.043399
-4.663095 1.804312 4.014223
3.978725 -3.028159 4.101711
-4.501703 2.175929 0.464079
4.819510 -1.331287 2.485545
2.420586 -4.375016 8.077570
0.865703 4.924486 4.463170
-2.940683 4.043808 6.584946
2.801150 -4.141686 8.581478
-2.493446 -4.333905 7.524203
1.501500 4.769224 2.297890
1.743241 -4.686268 9.412106
4.999730 0.051949 3.583101
-4.417514 2.342130 4.179632
-3.041958 3.968185 8.450151
-4.800848 1.397088 0.456312
-1.695874 4.703617 5.328628
-0.305398 4.990664 0.613136
4.339417 2.483839 0.759622
2.428778 -4.370473 6.112475
-3.066156 -3.949517 5.488445
-4.722126 -1.643633 5.508526
4.638915 -1.865601 1.258741
0.107418 4.998846 3.171644
0.350262 -4.987717 4.030930
2.068224 -4.552192 2.675300
1.556956 -4.751409 3.976029
-4.097338 2.865627 0.072904
4.332372 2.496108 8.349954
0.456337 4.979132 5.047533
3.125929 -3.902380 0.633097
-4.879613 1.090587 0.047814
2.546882 -4.302719 9.062297
-3.756694 -3.299584 6.504224
-1.669938 4.712887 7.348238
0.421328 -4.982217 4.596295
0.323217 -4.989542 1.981266
4.972827 0.520566 5.664534
-3.979101 3.027665 8.275752
2.918192 4.060069 0.001338
-1.084070 -4.881065 0.081421
0.599163 4.963971 8.327366
4.831081 -1.288664 8.911942
1.758643 -4.680510 4.456108
-4.532768 -2.110453 8.755507
-4.500717 -2.177968 0.112101
4.898171 1.003954 8.179335
4.923146 -0.873286 2.130305
3.899887 -3.129038 4.418461
4.847683 -1.224734 0.856137
4.530471 2.115380 5.847082
-4.897499 -1.007224 9.682908
-4.196021 -2.719083 4.472533
-2.694101 4.212104 9.386051
4.108869 2.849069 5.033546
-4.792122 1.426732 0.749872
-2.981480 4.013823 1.921982
4.985486 -0.380702 9.208742
3.543402 3.527648 9.872859
4.171332 2.756808 6.471175
4.864017 -1.158160 0.488722
-4.969203 0.554097 6.695629
-3.411980 -3.654914 4.719845
-4.914848 -0.918841 9.221688
3.421578 3.645930 9.312537
0.100931 -4.998981 4.506206
1.026144 4.893570 5.568445
3.628086 3.440493 0.486346
-0.557935 -4.968773 6.726703
-3.796063 -3.254214 8.011103
4.297616 2.555483 5.715012
-4.481440 2.217362 8.027731
-4.585550 1.993171 6.927565
-4.292036 2.564844 1.194959
4.998609 -0.117913 4.690498
-3.926683 3.095345 2.947814
-2.757610 -4.170802 9.222680
2.146075 -4.516012 3.526401
-2.749707 4.176016 7.339066
2.127977 -4.524568 1.349739
1.905813 -4.622540 1.904501
3.233527 3.813699 6.064774
4.583802 -1.997187 2.427931
-2.476534 -4.343591 5.636637
-4.996114 -0.197088 8.924597
4.999567 0.065820 4.388775
4.954669 0.671755 1.052908
1.921424 4.616073 5.024569
-3.377304 -3.686980 7.404550
-2.793685 4.146725 3.085619
-4.890076 -1.042666 7.199322
-3.676562 -3.388642 2.440057
-4.975020 0.499177 3.393553
3.287912 -3.766914 4.161105
4.999900 0.031664 7.258739
-2.657110 4.235536 6.324191
4.999992 0.009201 7.651928
1.807889 4.661710 0.242839
-3.905091 3.122542 2.223508
0.922435 -4.914175 1.334914
1.653409 -4.718711 7.289932
-0.646393 4.958042 2.142003
4.857092 1.186868 4.937931
0.577438 -4.966545 9.071608
-2.572190 4.287638 6.069545
-0.973133 -4.904387 7.191816
-0.302752 -4.990826 5.342988
2.389186 4.392242 3.896525
4.617796 1.917280 2.950265
-4.954971 -0.669520 9.301596
-2.754532 -4.172835 7.416374
4.974993 -0.499440 5.966912
-2.712753 4.200116 9.655883
2.939706 4.044518 9.628222
-4.903825 -0.975961 2.226716
3.138425 -3.892337 2.628380
-4.206551 -2.702764 6.359579
-4.356636 -2.453513 3.287088
4.522291 2.132812 4.360069
-3.670226 3.395504 4.511869
-4.914570 -0.920326 7.996867
-3.150848 -3.882288 8.813570
-1.994025 -4.585179 3.479208
-0.403629 4.983682 5.107496
2.915542 4.061972 6.131408
-4.999251 -0.086570 6.299375
3.968807 -3.041146 7.391578
-4.652640 -1.831103 0.770778
-3.670843 3.394837 1.153359
0.478009 4.977098 2.690855
-3.981733 3.024203 8.621363
-4.094199 -2.870110 6.010410
-4.758433 1.535355 8.922278
3.999547 -3.000604 5.923082
-4.980882 -0.436820 0.050184
-4.993431 0.256221 6.408557
4.023178 -2.968845 4.976805
-4.999268 -0.085558 9.474738
4.912833 -0.929554 3.670443
-1.686824 -4.706870 9.870008
-2.217278 -4.481482 3.647089
-3.929096 3.092281 6.770472
2.657541 4.235266 4.046640
1.608929 4.734063 9.726172
-2.270284 4.454864 8.866763
4.134570 2.811642 1.039057
3.040625 -3.969206 7.609308
4.725451 1.634048 6.357267
-4.969292 -0.553295 4.222420
4.708809 1.681403 3.068406
2.007168 4.579441 8.380495
3.854869 3.184334 9.263935
-3.999724 -3.000369 2.037680
-1.504750 4.768199 1.144448
-0.719917 4.947900 0.031559
-4.993862 -0.247678 1.454311
-2.692730 4.212981 2.164858
-2.177715 4.500840 9.409646
-4.735630 1.604308 1.895797
-2.468402 -4.348217 4.820314
4.735226 1.605500 8.773633
3.014956 -3.988739 0.998757
0.706734 -4.949801 4.399811
-4.652472 1.831530 3.916168
-4.167505 -2.762590 9.407819
2.250328 4.464977 2.501867
-4.308901 -2.536409 3.337786
4.750081 1.561002 6.613506
4.514233 2.149814 1.636883
3.516509 3.554457 3.442751
3.522118 -3.548899 4.208006
4.614913 1.924209 3.660792
-2.981566 -4.013759 3.021353
-4.998859 0.106794 1.766239
4.445003 -2.289529 5.673469
4.956976 -0.654512 2.910897
-3.383585 3.681216 1.567768
-4.746122 -1.572999 7.247910
-1.169498 -4.861304 1.487346
2.147561 -4.515305 5.272794
4.318382 2.520233 8.370816
4.244240 -2.643184 8.899582
-4.964290 0.596509 0.273811
-4.763720 1.518873 6.540138
4.390899 2.391653 6.157731
1.528442 -4.760658 9.750954
2.172010 4.503596 5.387840
-1.718916 -4.695245 0.729105
-3.713355 3.348282 6.991564
4.999980 0.014175 8.855132
-2.543354 -4.304806 9.287014
-3.825585 -3.219457 1.052339
2.342071 4.417545 5.560380
-4.726665 -1.630533 6.598060
-0.724528 4.947227 1.535684
-4.658088 -1.817199 5.321024
-3.416541 3.650650 3.698213
0.621236 -4.961256 2.207878
-0.384343 -4.985206 5.998022
2.954000 4.034090 8.007984
4.722445 1.642715 2.545954
4.865901 -1.150219 1.320545
-0.577821 -4.966500 1.888197
-4.999428 0.075618 2.990410
-4.896325 1.012917 2.718488
-0.464295 4.978396 4.480213
-1.736393 4.688810 7.984031
-0.915967 -4.915384 5.373201
4.025958 -2.965074 4.801999
-2.597758 -4.272195 4.275954
-4.974462 -0.504701 9.191663
4.355977 2.454681 5.504254
4.983178 -0.409798 1.013236
-4.557170 -2.057232 4.179140
3.926930 -3.095031 1.035923
0.502852 4.974650 6.328756
1.080202 -4.881922 7.086914
-4.774621 1.484250 8.699968
-3.943557 3.073819 4.637267
4.766632 -1.509709 1.285598
-3.162757 -3.872592 3.946584
3.950805 3.064497 5.992214
4.157018 -2.778345 4.463679
4.950316 -0.703117 5.183478
3.378766 -3.685639 4.472700
-4.625267 -1.899185 1.894339
2.286464 -4.446581 9.203198
3.892148 -3.138659 4.905719
-3.770363 3.283955 3.510478
1.301462 -4.827649 9.418351
-1.259104 -4.838870 0.348101
-1.104160 -4.876559 5.004325
4.864198 1.157403 4.437437
-0.990700 -4.900869 9.821795
2.436338 -4.366264 9.702885
4.230456 2.665190 3.639745
4.872967 1.119906 8.270569
-4.234976 2.658002 9.809612
3.978104 -3.028975 8.876868
3.563282 -3.507566 8.612984
2.256575 4.461824 2.166856
2.060369 4.555752 5.273639
-3.267420 -3.784702 3.232579
-4.617547 1.917879 9.072072
1.555827 -4.751779 8.111792
-4.105477 2.853955 2.567874
4.856918 1.187579 7.973936
1.988711 4.587486 3.153945
-3.338768 -3.721912 3.106703
2.130263 4.523492 3.405261
3.331727 3.728216 4.336388
-3.780330 -3.272477 6.562357
-4.681970 1.754751 0.744407
-4.999965 0.018615 5.878772
-4.925718 -0.858660 6.292175
4.008592 2.988509 3.434649
2.464828 4.350244 7.503278
-4.911646 0.935806 6.628098
4.800811 -1.397215 0.362331
-4.999935 -0.025563 5.159051
1.201388 4.853521 9.791182
4.983851 0.401534 1.533735
1.911952 4.620004 2.209288
2.519321 4.318915 0.903984
3.096671 -3.925638 5.208584
4.468543 2.243239 1.953651
-4.208356 -2.699951 7.968218
-2.585170 -4.279825 6.066322
-4.780051 1.466668 0.274826
-4.510952 -2.156689 0.693604
-4.294222 -2.561183 3.243712
4.944777 -0.741069 7.164083
-2.939833 4.044426 2.538901
-2.279226 4.450295 7.122252
0.143882 4.997929 4.283914
-4.987827 -0.348687 0.976367
-2.107904 -4.533954 0.086852
4.053601 2.927169 7.417253
-4.910445 -0.942086 0.025166
-1.971710 -4.594819 8.451555
4.149806 -2.789105 0.820743
-1.014998 4.895894 1.965101
-4.996094 -0.197585 0.372902
-1.540241 -4.756854 0.986534
3.696418 -3.366971 2.062271
4.995439 0.213510 5.554906
4.992108 0.280818 5.284285
-1.539067 -4.757234 2.900389
0.539986 -4.970756 0.212008
-4.728447 -1.625357 9.550643
-4.548039 2.077341 3.626426
0.374148 -4.985982 6.468305
2.281520 4.449120 2.232303
-0.578701 -4.966398 7.296275
-4.944138 0.745320 1.249905
4.674790 -1.773792 2.343123
3.165675 3.870207 9.681800
-4.978686 -0.461184 1.229386
0.994886 4.900021 6.126893
4.968791 0.557780 8.626767
-3.426023 -3.641753 2.734974
4.997937 -0.143615 9.898729
4.977575 -0.473024 1.396934
-1.038456 4.890972 3.635058
-4.207763 -2.700876 1.871926
-3.246642 -3.802541 9.649710
1.351697 4.813825 4.535062
-4.635101 -1.875056 7.700589
2.616030 -4.261031 3.243536
4.671130 -1.783408 8.731019
4.389651 2.393944 4.038190
-2.838503 4.116176 5.416719
4.988866 -0.333497 0.177368
3.192295 -3.848279 0.732107
-0.023112 4.999947 0.080791
-4.975328 0.496100 5.727649
-4.994576 0.232823 7.908936
-0.178353 -4.996818 7.955250
4.622186 -1.906672 1.685442
-0.698172 4.951016 2.715217
3.892955 3.137659 1.623500
4.499624 -2.180226 4.029378
-2.778915 4.156637 3.470512
-3.127691 3.900968 5.714046
-2.683045 -4.219155 8.005950
3.944724 -3.072320 0.179613
0.025104 4.999937 5.875147
4.785130 -1.450011 7.640448
-1.641495 4.722869 7.053069
-4.999109 0.094402 8.913564
-3.475598 3.594471 4.382649
-4.988661 0.336538 1.861193
-4.408887 -2.358330 5.996734
4.613993 -1.926413 1.581648
3.102409 -3.921104 5.964625
-4.999399 -0.077536 0.689462
-1.181232 4.858466 2.783921
3.753204 3.303552 1.533767
-3.390447 3.674897 6.746924
-4.983051 -0.411341 6.856357
-2.103741 4.535887 1.446180
2.550791 -4.300403 4.947783
-4.708782 -1.681479 9.527906
2.296010 4.441659 8.071496
-2.314201 -4.432209 5.902650
-3.624793 3.443962 4.245709
-2.615428 4.261401 1.394351
-0.204338 -4.995823 8.848718
-3.330477 3.729333 1.477991
0.932669 4.912243 4.298095
-1.853989 4.643568 7.084091
-0.726561 4.946929 6.287428
-3.388851 -3.676369 3.904686
-2.347944 -4.414426 6.732336
1.381812 4.805267 5.470175
-0.569521 -4.967459 3.487694
4.076087 -2.895775 7.951192
-0.025268 -4.999936 8.945717
-0.755814 4.942544 4.019880
2.670863 4.226877 7.950964
-4.156189 2.779586 1.623913
-2.812862 4.133740 7.397516
2.948117 4.038392 6.617475
-1.439491 -4.788305 2.271217
4.998394 0.126716 1.092051
-1.925580 4.614341 0.183564
-4.500297 2.178835 3.364631
3.915374 -3.109637 9.388006
-4.745281 -1.575534 9.357216
2.342367 -4.417388 4.652130
2.097498 -4.538778 3.561297
4.239912 2.650121 5.229966
2.650463 -4.239699 1.026429
4.572304 -2.023373 6.468549
4.788133 -1.440064 7.243325
2.454416 4.356127 1.239365
-0.125198 -4.998432 2.461222
4.796433 1.412173 4.593032
-4.723976 -1.638307 3.650782
0.800285 4.935539 1.448247
-0.751371 -4.943222 2.566578
1.095650 4.878478 1.623806
1.825305 -4.654918 5.520363
-4.966899 -0.574379 4.432953
-0.224150 -4.994973 3.893412
4.585707 -1.992811 0.898388
-1.204747 4.852688 4.050204
2.922549 4.056933 9.074613
-2.134297 -4.521590 8.778021
-4.351120 2.463282 1.372748
-1.055529 -4.887316 1.982819
-1.821982 4.656220 2.801046
4.682303 1.753865 1.300841
-4.999988 -0.011105 5.025178
0.533087 -4.971501 8.130456
-4.994939 0.224917 3.579273
4.332216 -2.496378 5.441583
4.805105 1.382375 9.896684
4.052816 2.928256 0.650169
2.200987 4.489505 2.190129
-0.210838 4.995553 4.307297
1.770649 4.675981 0.292260
4.514305 -2.149663 0.823703
-4.990338 -0.310690 0.587009
0.271438 4.992627 7.090539
-4.790462 -1.432298 6.981403
3.538645 -3.532420 3.439629
-4.765794 1.512353 2.673051
4.767709 -1.506302 8.118390
0.748256 -4.943694 2.185449
-4.821655 1.323496 6.835604
4.867233 1.144572 9.948915
-4.377617 2.415879 4.138299
-4.144589 2.796852 5.369342
2.736517 -4.184671 9.733782
-4.763226 -1.520421 8.568280
0.502967 -4.974638 0.947937
4.961799 0.616890 8.103345
3.467023 3.602742 5.819091
1.249179 4.841441 8.729602
1.558382 -4.750941 5.906332
-4.992428 0.275068 7.200558
1.983519 4.589733 2.540420
-3.626988 3.441650 3.738645
-4.915271 -0.916576 2.540003
3.052539 3.960052 6.625592
-3.434616 3.633650 7.708148
-0.447417 -4.979942 6.234706
1.943815 4.606689 7.803036
0.407400 -4.983375 8.375815
-4.982334 0.419942 6.565782
4.799592 -1.401399 8.799673
-2.433428 4.367886 4.635799
-2.057459 -4.557067 5.921613
2.519002 4.319101 2.048493
-1.003092 -4.898347 0.296497
-0.267697 -4.992829 9.519497
-4.813783 -1.351848 8.651168
0.941140 -4.910627 3.155565
-4.946345 -0.730526 0.687638
3.973703 -3.034747 2.123411
3.385895 -3.679092 0.596103
4.999520 0.069245 0.105925
1.120502 -4.872830 0.420586
4.255161 2.625567 4.551786
0.368845 4.986377 0.540631
-2.400558 4.386037 6.111605
-4.794460 -1.418857 0.103437
4.199832 2.713192 1.709204
-2.114720 -4.530779 7.374280
-0.808006 4.934281 8.936545
0.196646 4.996132 6.168876
-0.520220 4.972863 3.859587
0.166639 -4.997222 1.507286
1.019334 -4.894993 9.990047
-2.102751 -4.536346 4.113297
0.471598 4.977710 5.695679
4.999835 0.040631 1.264745
4.739394 1.593157 2.609785
0.518372 4.973056 7.850535
1.355754 -4.812685 9.555401
1.009474 -4.897036 9.431105
2.451340 -4.357858 5.811473
3.963480 -3.048086 6.074096
-1.315354 -4.823883 4.406437
-4.165034 -2.766314 0.648877
-4.053098 2.927866 9.494501
4.078239 -2.892744 9.199176
-4.189046 -2.729816 2.767176
4.436251 2.306443 7.649446
1.098181 4.877909 6.734933
0.906313 4.917174 3.818074
0.141780 4.997989 4.343888
-3.494898 3.575708 5.566106
-1.019204 4.895020 0.608534
2.943664 4.041638 4.605813
0.723447 -4.947386 0.245349
-2.496145 4.332351 7.389253
3.860247 3.177812 9.991236
-2.211945 4.484116 6.787657
-4.325414 -2.508145 6.805581
-2.944132 -4.041298 3.984262
-0.648270 4.957796 4.483032
-3.138692 -3.892122 3.770373
4.981520 0.429483 4.872397
-4.109114 -2.848715 1.410347
-0.435643 -4.980985 8.324605
2.789015 4.149867 6.623406
4.217639 2.685428 9.038465
-4.958562 -0.642389 1.457963
4.339747 -2.483262 4.083433
-3.507018 -3.563822 4.703196
-0.702523 -4.950400 0.027171
-3.900851 -3.127836 7.445269
2.420996 4.374789 7.314344
-0.425571 4.981856 3.124228
4.652191 -1.832245 7.204835
4.939094 -0.778045 2.933934
4.373786 2.422807 3.399276
4.839468 -1.256802 8.933979
-2.061720 4.555141 6.554801
2.291577 -4.443948 2.948570
1.796520 4.666103 1.087426
-2.452632 4.357132 1.480143
3.485584 3.584788 0.670461
-1.112764 -4.874603 9.145389
0.691373 4.951970 9.518670
2.503276 4.328234 9.046230
-4.817044 -1.340181 1.429904
-1.669688 4.712976 7.026359
3.891225 -3.139804 9.535709
-4.253497 -2.628262 4.025028
3.902791 3.125415 8.999018
-3.509612 -3.561268 6.907134
-4.997302 0.164228 1.340898
4.570756 2.026868 9.241213
4.579996 -2.005901 1.009858
4.804271 -1.385272 2.331948
-0.053984 4.999709 6.102447
-4.097221 -2.865795 3.794264
2.337551 4.419938 6.895199
4.993348 -0.257825 1.782154
-2.465212 -4.350026 0.918849
-1.181340 4.858440 4.714103
4.476274 -2.227772 0.438991
-3.160552 -3.874392 2.046685
-3.110259 -3.914881 5.906407
3.775014 -3.278608 8.699553
3.718957 -3.342059 2.934594
3.317521 3.740863 0.898736
4.849161 -1.218866 8.875259
-0.438335 4.980749 5.724469
-4.476090 -2.228143 0.088762
4.681794 1.755221 9.939852
-1.347380 -4.815036 9.360846
4.558691 -2.053859 6.677509
4.907225 0.958720 6.039748
0.688501 -4.952370 0.746980
1.570010 4.747112 6.122867
-0.033042 -4.999891 6.528600
4.010267 -2.986261 5.979254
3.283804 -3.770495 5.165769
0.158614 4.997484 9.712375
1.352469 -4.813609 5.437563
-4.915769 0.913902 0.482831
4.891175 -1.037500 7.286213
-4.611922 1.931365 4.336781
-1.158529 4.863930 2.764675
0.547364 4.969949 5.145472
4.388257 2.396498 1.342910
-3.168358 -3.868010 2.984369
0.367247 -4.986495 8.933984
0.699691 -4.950801 6.033868
3.307458 3.749763 0.521474
-4.999251 0.086567 4.928967
3.740618 3.317797 3.940472
4.826166 -1.306953 3.323274
-2.096150 4.539400 5.808048
0.617831 -4.961682 0.391836
4.988836 0.333942 1.793892
-4.855130 1.194870 2.133070
-1.003132 -4.898339 0.918645
-1.421103 -4.793795 3.674708
0.018657 -4.999965 2.145358
4.172042 -2.755733 3.861771
4.983650 -0.404016 0.992166
4.841051 1.250689 9.763980
4.534701 -2.106297 3.737606
-4.542497 -2.089430 2.228443
-4.190131 -2.728150 1.679083
4.996113 -0.197106 1.867389
-4.796090 1.413336 9.854924
4.999552 -0.066943 0.057866
-0.137165 -4.998118 7.006956
-4.961908 0.616011 9.602920
1.207103 -4.852103 8.966985
4.998966 -0.101690 8.563983
-4.601426 1.956240 0.794354
2.142405 -4.517754 3.945477
-4.122658 -2.829079 7.266261
-1.611704 4.733119 4.252263
4.752854 -1.552540 0.080892
-2.792451 4.147556 4.756810
2.063232 -4.554457 4.098958
4.887126 1.056409 9.508592
3.057890 -3.955921 3.450733
-4.476941 2.226432 9.102376
3.140800 -3.890421 0.806871
1.312499 4.824660 7.223878
4.528749 -2.119063 3.086997
2.640971 4.245618 0.033181
-4.607909 1.940922 0.040712
3.320738 3.738008 3.038201
-3.085804 -3.934185 6.712561
3.498393 3.572288 9.764474
4.885154 -1.065492 0.585215
-2.922422 -4.057024 0.903715
-2.705961 4.204495 5.759169
3.369711 -3.693920 4.647987
2.127124 -4.524969 0.054312
-4.549687 -2.073728 0.000334
-4.559456 -2.052159 7.846476
-3.800798 -3.248682 3.229370
-4.645192 -1.849916 8.296545
-1.988043 4.587776 9.872407
-2.944399 4.041103 8.824934
-4.924571 -0.865220 0.088542
-4.942000 0.759366 6.599377
-4.672581 -1.779603 2.780386
-3.144883 3.887121 9.106868
3.786616 -3.265201 7.251725
4.194190 2.721905 0.636894
-4.122883 -2.828751 8.181049
2.567872 -4.290225 0.799660
-3.430833 3.637223 8.929178
1.148411 -4.866328 8.040873
-4.897033 1.009491 1.796997
4.993470 -0.255450 1.523708
2.346117 4.415397 9.058331
3.471987 -3.597959 9.748803
-0.704686 -4.950093 7.812159
2.846153 4.110889 4.927500
-3.885436 3.146964 9.675205
-3.013443 3.989882 0.769089
-3.572738 -3.497935 1.027702
-2.686761 4.216790 2.761845
-4.228636 2.668078 1.005424
-3.677607 3.387507 2.366529
-2.043887 4.563170 7.161559
-2.384546 4.394763 2.086876
-4.280711 -2.583701 7.535775
-4.522059 2.133303 2.884535
-2.151495 4.513432 1.119548
4.685120 -1.746325 4.350534
3.392591 -3.672918 2.228093
4.574854 2.017600 5.360447
-1.608695 -4.734142 0.879122
-4.410279 -2.355726 8.228817
3.626019 -3.442671 8.366307
-4.811975 -1.358271 8.674819
-3.920331 3.103386 7.516064
4.322073 -2.513898 3.757697
3.580848 -3.489631 5.182869
-1.076534 -4.882732 1.036940
0.495547 -4.975383 6.590762
2.760353 4.168987 3.136608
-4.912186 0.932968 3.533521
4.273344 -2.595868 5.894690
4.273608 -2.595434 9.902251
4.314844 2.526287 4.795444
4.906020 -0.964868 6.377003
4.300819 2.550089 0.250040
-0.385609 4.985108 9.614834
4.823981 -1.314993 1.056047
1.860384 -4.641010 4.095905
-1.849900 -4.645198 8.551877
4.128375 2.820731 9.756192
-1.075907 -4.882870 0.382863
3.456054 -3.613266 3.973654
1.858989 -4.641569 0.764615
1.389829 -4.802955 8.677747
0.473516 4.977528 5.653809
4.958764 -0.640824 5.861822
-4.751967 -1.555252 9.417233
-2.974705 4.018847 8.999946
-3.868905 -3.167266 7.009735
-4.999478 0.072279 9.787867
0.204017 4.995836 0.181379
0.085335 4.999272 5.756701
-4.922091 -0.879214 2.669814
4.971859 -0.529737 6.465672
4.454663 2.270677 4.888298
-4.870584 -1.130224 3.451380
4.055619 -2.924372 3.740038
-3.633443 3.434835 0.086220
0.069465 4.999517 4.665221
-3.766742 -3.288108 9.807590
4.813620 1.352428 0.850429
0.231651 4.994631 3.633105
2.080294 4.546689 3.605479
-3.867038 3.169546 6.111075
-1.853115 -4.643917 3.905375
3.444913 3.623889 5.294094
-2.624708 -4.255691 8.591822
2.887290 4.082102 6.022568
0.686588 -4.952635 5.963005
0.441038 4.980511 3.560970
-3.851589 -3.188301 6.131810
-1.055815 4.887254 5.248761
-3.300605 3.755796 8.020719
4.601378 -1.956354 6.825968
-4.956883 0.655220 9.127492
-1.809915 -4.660924 4.741677
-1.796453 4.666129 4.630772
-4.524325 2.128492 6.004305
-2.595454 4.273595 1.214201
4.986646 -0.365181 0.052164
-2.977068 -4.017097 2.773603
-3.210013 3.833513 1.961721
4.999812 -0.043311 1.777494
2.643615 4.243972 3.000795
-3.194725 3.846262 1.258359
-1.438446 4.788619 2.247472
4.025590 2.965574 4.893558
3.984367 -3.020732 5.333743
4.799501 -1.401709 7.584952
-2.329248 -4.424320 7.359281
4.864937 1.154292 6.823249
0.348059 -4.987871 2.740444
3.716868 3.344382 3.955761
3.071194 -3.945601 4.222842
1.082429 4.881429 6.681879
-2.573127 -4.287076 2.471912
-4.436076 -2.306778 2.038193
-2.840800 4.114590 4.596102
-0.664435 -4.955656 0.821214
3.292160 -3.763201 6.280877
0.649489 4.957637 7.332677
-3.722498 3.338114 2.337436
1.453860 -4.783962 7.708591
4.806787 -1.376517 2.440053
-1.297723 -4.828656 3.969461
-4.265436 -2.608841 8.183193
-4.740643 -1.589434 4.564925
1.588011 4.741120 7.822574
-3.373368 3.690581 0.027372
3.072594 3.944511 1.369233
3.598299 -3.471635 2.836258
4.710713 -1.676062 7.801059
4.459942 -2.260291 5.285535
-4.452286 2.275335 3.436892
-3.396323 -3.669468 0.531897
4.653696 -1.828418 5.012873
-0.315961 4.990007 7.176577
-2.974571 4.018946 7.286033
2.978738 4.015858 6.539155
-4.998199 -0.134199 4.314650
4.433453 2.311817 5.856274
-4.670686 -1.784571 5.132804
4.030975 -2.958249 4.163069
1.227822 4.846901 7.193338
3.831932 3.211899 0.674282
-1.066895 -4.884847 6.409243
4.999624 0.061281 0.580235
4.813441 -1.353066 3.407800
4.081773 2.887755 8.961017
-4.429703 2.318994 2.263726
-4.151155 2.787097 5.417597
-2.955106 4.033280 9.233667
1.452244 4.784453 4.476674
-3.423610 -3.644022 8.295236
3.073627 -3.943706 3.577663
0.541940 4.970543 8.234816
4.999843 -0.039663 2.756996
-2.019815 -4.573877 6.378633
-0.412714 -4.982938 2.105276
0.962245 4.906535 0.246049
4.999649 -0.059226 5.906412
-3.251633 3.798273 1.675736
-4.959905 0.631935 0.430466
-4.739291 -1.593461 0.725872
-4.778260 1.472491 4.922940
-4.997510 -0.157784 0.202675
-0.553147 4.969309 6.367336
-4.999271 -0.085377 9.333720
-3.962353 -3.049550 0.430210
-4.998951 0.102431 8.066792
-4.415980 2.345020 9.431562
0.900373 -4.918265 9.408549
-1.491989 4.772208 7.782840
4.234817 2.658256 6.542010
3.266812 -3.785227 8.181212
-4.951308 0.696096 7.165637
4.722797 1.641703 4.873138
2.829060 -4.122672 4.018023
-4.961316 -0.620758 6.915564
2.635589 4.248961 4.979815
4.905695 0.966519 6.947335
-1.598237 -4.737683 2.401126
-4.004297 -2.994262 2.243470
-2.389926 4.391840 5.193288
4.949332 0.710006 4.169535
3.849173 -3.191217 5.852424
-3.742137 -3.316084 6.274975
2.914643 4.062617 8.282482
-4.677496 1.766645 7.623277
-4.392128 -2.389396 6.845610
-3.646504 -3.420967 1.179904
3.426284 -3.641508 5.961391
2.480232 4.341480 0.398702
-0.858937 4.925670 4.597717
-4.422640 2.332435 0.875676
4.932692 0.817646 2.876895
-1.159426 4.863716 6.743973
4.911112 0.938607 2.324842
1.019724 -4.894912 6.793232
2.341378 -4.417912 5.223652
1.388615 4.803306 3.201542
4.947532 0.722442 4.199785
4.811226 1.360921 0.294472
2.232447 -4.473944 5.639559
-3.938738 -3.079990 6.475442
0.240360 -4.994219 7.932506
2.268630 -4.455706 8.076099
4.999676 -0.056961 4.576022
0.854109 4.926510 7.139268
