0.428824 15.321746 0.249254
0.269712 25.974700 0.616483
0.701751 11.452331 0.391952
0.016560 2.093563 0.830807
0.579664 25.827968 0.196551
0.895915 9.739746 0.795854
0.179981 28.145471 0.765062
0.679995 28.151258 0.555877
0.649377 3.852875 0.155567
0.195852 18.247902 0.654111
0.432806 23.213755 0.214371
0.501154 23.921589 0.182404
0.910974 7.409724 0.897686
0.262475 2.906812 0.048320
0.088393 24.166623 0.481270
0.209170 21.598833 0.009714
0.637565 26.728946 0.804547
0.553830 6.609093 0.937997
0.751218 27.047038 0.775025
0.815951 4.627421 0.987783
0.453487 12.927610 0.695747
0.627916 12.830475 0.396398
0.579493 16.851829 0.188724
0.975543 7.510840 0.867557
0.682053 20.714204 0.444012
0.448336 24.108623 0.071551
0.364378 7.852442 0.053886
0.868399 11.537787 0.232290
0.877032 26.640613 0.319865
0.939876 7.760794 0.132710
0.503278 3.815532 0.846742
0.099625 6.933520 0.607845
0.293018 0.538430 0.801420
0.509881 6.439434 0.228373
0.333620 1.240523 0.045228
0.638275 27.205116 0.049214
0.277511 16.240406 0.417124
0.038280 12.887228 0.586402
0.859895 1.555983 0.265912
0.964445 3.217406 0.151390
0.649475 25.369627 0.622873
0.629644 0.064208 0.528302
0.798509 4.484245 0.090699
0.737985 16.284301 0.358528
0.341005 9.280872 0.239855
0.660565 1.373218 0.377765
0.603317 7.670656 0.378435
0.511684 21.039912 0.203834
0.675128 2.732048 0.727721
0.057212 0.013247 0.894193
0.943492 8.489760 0.975011
0.323588 25.090962 0.521442
0.868974 16.886796 0.533983
0.898494 21.233539 0.037938
0.077247 6.217003 0.655325
0.579631 1.648316 0.020175
0.412732 0.610548 0.019512
0.628207 28.025859 0.676481
0.422080 27.317782 0.742873
0.655553 0.196117 0.290699
0.431194 26.116324 0.448367
0.014764 19.711318 0.237427
0.233310 1.027889 0.674332
0.723669 5.602996 0.488761
0.851638 1.773752 0.924738
0.176620 15.908583 0.893454
0.153406 7.338929 0.660528
0.504171 18.575071 0.191318
0.733793 10.614295 0.167054
0.726605 16.896562 0.347846
0.039550 8.686599 0.387153
0.208821 14.230569 0.152124
0.375753 9.184734 0.690941
0.796694 2.132716 0.051885
0.575752 16.048216 0.245945
0.160706 7.450408 0.543480
0.737664 28.535009 0.581532
0.807905 12.069287 0.078784
0.324748 28.694444 0.716761
0.043774 11.595126 0.004583
0.323166 28.152885 0.447347
0.059979 20.951954 0.055866
0.130537 3.939028 0.558543
0.630646 10.731105 0.594749
0.843725 10.613502 0.661025
0.225877 2.074414 0.361635
0.350011 23.431608 0.166573
0.131690 24.568124 0.285697
0.034913 9.532345 0.222300
0.044798 23.959741 0.700584
0.110677 9.459050 0.329798
0.260350 13.922163 0.390959
0.037005 7.135049 0.473055
0.026852 18.267200 0.354647
0.464695 26.508733 0.725922
0.965133 15.249620 0.266961
0.732174 8.508318 0.772027
0.274245 8.965894 0.276149
0.429116 6.868731 0.220776
0.248801 16.159395 0.505052
0.366616 20.592589 0.652643
0.239843 27.334157 0.222776
0.084891 8.072733 0.659935
0.319021 5.569284 0.237763
0.074846 0.339318 0.947745
0.757903 18.615754 0.034605
0.067751 1.310763 0.236534
0.215422 8.523899 0.089761
0.675840 0.476543 0.532679
0.513873 23.753715 0.295388
0.181993 26.731781 0.062757
0.384108 11.270416 0.225713
0.426089 4.108647 0.135047
0.119063 28.722449 0.434368
0.007487 23.574730 0.179796
0.469893 11.481486 0.920035
0.880951 10.512181 0.736074
0.854762 2.902280 0.173050
0.162129 10.095770 0.135061
0.133390 17.471870 0.283051
0.131116 14.301434 0.108037
0.075300 19.803974 0.060703
0.374292 3.578439 0.388980
0.982520 5.139588 0.729974
0.566542 22.549069 0.700150
0.156688 18.653208 0.611697
0.755517 23.646761 0.773738
0.950100 7.325877 0.412973
0.655076 1.455300 0.499221
0.535523 0.875857 0.001616
0.741422 4.810811 0.417709
0.900990 6.580742 0.401784
0.919163 14.461500 0.797243
0.707946 26.047530 0.466058
0.506806 8.151799 0.081603
0.455369 0.960450 0.635254
0.793085 29.523522 0.876726
0.314169 2.759498 0.532070
0.858094 15.151148 0.390075
0.061646 17.579352 0.988903
0.424745 15.701721 0.099027
0.942939 3.511855 0.222186
0.059972 18.811585 0.554263
0.038823 2.594008 0.451944
0.824504 13.545693 0.537107
0.676926 28.390526 0.399828
0.714073 29.666281 0.767321
0.559744 17.333046 0.114164
0.362818 21.504518 0.730694
0.149403 24.460953 0.628712
0.563766 10.613701 0.009800
0.793913 5.111141 0.590329
0.343884 18.356809 0.965958
0.838779 18.097783 0.698938
0.679581 22.245173 0.873646
0.371630 18.143119 0.530205
0.651123 22.086824 0.565558
0.378087 19.610619 0.425798
0.420295 1.868872 0.471607
0.376568 13.258548 0.363190
0.048505 5.867708 0.418271
0.704923 11.769655 0.924715
0.913715 14.749876 0.363620
0.576435 28.589917 0.659448
0.517312 19.036563 0.322609
0.263974 5.370436 0.480421
0.769802 19.765982 0.097931
0.728679 15.929058 0.098670
0.006986 26.664249 0.585844
0.751030 25.881209 0.293232
0.860395 0.111406 0.783513
0.896680 15.022096 0.408268
0.742229 2.992634 0.471718
0.702785 13.964619 0.493038
0.032574 19.082697 0.084748
0.503637 29.194834 0.952048
0.821943 28.216802 0.743878
0.421199 23.549683 0.188970
0.804741 22.322472 0.844381
0.248802 9.415174 0.753319
0.987543 2.571220 0.036692
0.580678 0.933322 0.950796
0.911308 21.339912 0.843466
0.960834 27.283895 0.233139
0.973996 1.281572 0.579435
0.674935 6.658928 0.281048
0.109651 11.282930 0.000489
0.664305 24.637949 0.326648
0.777761 20.728989 0.419330
0.762047 12.533656 0.308228
0.431801 22.064350 0.992795
0.459043 16.192026 0.314863
0.562768 5.687311 0.088784
0.184596 4.021000 0.405699
0.019394 4.435574 0.940280
0.258530 17.469571 0.154168
0.452564 27.581155 0.588867
0.775887 12.417335 0.557745
0.033425 24.703701 0.997726
0.270602 0.353391 0.771619
0.995864 12.903608 0.727104
0.060530 0.578032 0.315254
0.597364 25.230595 0.988393
0.006842 18.124868 0.082495
0.695360 25.772819 0.941143
0.957774 13.937476 0.955093
0.040245 4.844314 0.219384
0.704202 2.474783 0.930668
0.580331 4.554250 0.021781
0.738826 23.499425 0.844571
0.393063 10.814864 0.372157
0.628910 0.017183 0.599191
0.293772 8.080122 0.988395
0.258456 15.242033 0.132074
0.446805 13.755203 0.216356
0.464046 2.569559 0.139749
0.409343 24.772164 0.040413
0.799659 11.562598 0.762054
0.549096 17.692984 0.928050
0.075984 8.130047 0.548746
0.604720 25.059228 0.390099
0.954599 5.761681 0.967391
0.156095 17.266504 0.330371
0.806733 15.589802 0.738322
0.498430 0.283869 0.694808
0.561261 0.802455 0.620274
0.356341 23.520920 0.257992
0.811624 1.538403 0.670118
0.642530 24.420647 0.473462
0.987034 5.107205 0.665240
0.934279 17.199014 0.981616
0.477938 19.914590 0.100430
0.515262 4.022561 0.874104
0.224650 3.928198 0.875962
0.735175 24.598312 0.844482
0.209196 24.221602 0.328165
0.595156 3.619953 0.843652
0.851191 17.536326 0.576622
0.045128 12.077365 0.897453
0.699445 1.410406 0.967596
0.642292 6.149416 0.836461
0.148250 6.282587 0.519667
0.387826 26.149260 0.631972
0.278668 3.696053 0.003538
0.543787 15.686070 0.528854
0.466645 11.881760 0.723372
0.079991 13.141429 0.042689
0.125888 5.707903 0.513822
0.449531 23.651206 0.882602
0.533370 9.505802 0.527658
0.204737 16.411451 0.857555
0.206122 14.065707 0.874261
0.141377 25.889861 0.868355
0.877054 19.503938 0.771656
0.416181 2.733615 0.028814
0.683068 25.582756 0.235069
0.447297 7.732231 0.212569
0.394455 10.183860 0.908918
0.983197 8.404401 0.094290
0.237386 18.971812 0.324151
0.080689 17.137610 0.110643
0.763878 14.732134 0.926104
0.926274 4.124499 0.627533
0.758020 11.256894 0.053944
0.062861 26.436955 0.257582
0.092766 28.987904 0.363369
0.740675 5.370873 0.839412
0.871737 7.527893 0.104493
0.544355 10.585104 0.952878
0.864220 20.395301 0.343755
0.926020 24.944478 0.079128
0.055515 5.116363 0.493460
0.343697 4.652635 0.430919
0.573517 11.320337 0.568247
0.879684 22.473109 0.123483
0.232423 24.866866 0.750325
0.445946 27.394477 0.139733
0.165783 4.842621 0.271693
0.197353 27.746555 0.743899
0.106827 29.266171 0.859823
0.265013 0.521003 0.280041
0.038490 5.810220 0.909055
0.066863 23.305907 0.931514
0.805681 17.701424 0.323661
0.045744 28.190889 0.850932
0.085938 14.572722 0.031952
0.067780 13.245183 0.230812
0.230253 24.052889 0.956337
0.170479 2.820277 0.856031
0.793870 22.796718 0.627229
0.900817 18.603742 0.843867
0.892276 2.016489 0.194485
0.038851 2.321185 0.934836
0.998860 28.253831 0.974849
0.647497 27.897655 0.702867
0.973276 18.295589 0.267734
0.188481 6.618693 0.624172
0.670835 27.542481 0.723052
0.226826 15.641278 0.789027
0.296061 1.819900 0.616780
0.662394 16.292293 0.452720
0.970736 4.858515 0.070261
0.713783 0.000314 0.404620
0.118120 29.570873 0.403309
0.213303 1.861146 0.734200
0.240710 27.515166 0.729399
0.340210 6.350451 0.256155
0.729066 22.306034 0.152787
0.884409 29.039617 0.517931
0.096549 9.891936 0.600145
0.948784 8.114355 0.535092
0.757227 18.487544 0.906735
0.532983 25.600756 0.075298
0.241730 21.012283 0.722982
0.291843 28.283385 0.658880
0.423776 15.932656 0.177335
0.110629 18.922259 0.290848
0.643747 19.726209 0.148708
0.302811 23.191192 0.678124
0.244794 16.628319 0.569481
0.016969 5.809141 0.957013
0.676234 3.047054 0.310092
0.646580 6.570688 0.326846
0.272622 7.009343 0.364744
0.261753 6.725832 0.905060
0.839768 12.470137 0.965254
0.166275 0.444923 0.604723
0.888615 13.896899 0.068211
0.282049 11.007500 0.075732
0.172163 3.818790 0.051154
0.335378 1.396475 0.380309
0.685429 25.824830 0.522819
0.751287 7.611510 0.380636
0.360699 3.750934 0.761999
0.085715 17.060014 0.142809
0.502896 0.372077 0.985901
0.036626 4.748425 0.591206
0.173475 2.323083 0.715908
0.054218 10.243549 0.192513
0.174803 5.968921 0.179769
0.007268 19.346160 0.186589
0.323081 10.850020 0.948280
0.158671 27.781560 0.149369
0.802549 14.329703 0.002567
0.779718 24.315162 0.503858
0.724763 25.010419 0.994429
0.731846 18.311502 0.968309
0.341818 10.674415 0.001236
0.637721 14.081427 0.880265
0.665991 28.350632 0.489416
0.602363 7.233052 0.292226
0.870661 17.371596 0.273650
0.131220 18.781697 0.191596
0.699168 13.759727 0.950463
0.944626 11.516994 0.320982
0.596993 2.512835 0.948271
0.094690 2.454269 0.880228
0.634908 25.159468 0.838544
0.693311 10.682279 0.408517
0.578508 15.064403 0.259691
0.040740 12.527702 0.925339
0.104579 14.972746 0.277354
0.220320 29.370053 0.849101
0.105674 26.617243 0.921603
0.334683 5.220128 0.948081
0.400793 24.064663 0.588691
0.458121 4.609351 0.520796
0.923742 17.888048 0.993936
0.318431 2.669544 0.500842
0.819044 1.741180 0.986783
0.578887 13.585274 0.984085
0.431315 11.270570 0.621556
0.576059 22.990987 0.229919
0.632827 18.809921 0.565631
0.622164 1.639333 0.328244
0.928197 5.681702 0.062014
0.569971 6.684276 0.942770
0.122835 8.868046 0.057747
0.322711 27.375676 0.787570
0.639772 18.616277 0.108873
0.342889 6.022022 0.001306
0.600685 18.165350 0.887988
0.241668 19.273047 0.204991
0.793961 9.941278 0.085610
0.771865 15.959467 0.099110
0.976646 29.674460 0.277462
0.561340 18.815500 0.457917
0.833560 20.781666 0.167837
0.985682 28.883939 0.564648
0.665341 26.494605 0.985407
0.198377 18.116398 0.034792
0.324012 17.787823 0.315739
0.837381 2.005336 0.983314
0.426298 7.878781 0.322900
0.248518 27.791581 0.383205
0.171142 26.063535 0.101819
0.836044 12.351390 0.820298
0.229867 8.538414 0.346448
0.707725 4.708241 0.931962
0.814610 21.650122 0.878015
0.586052 29.677274 0.334588
0.011650 21.101935 0.235227
0.820940 12.966037 0.037101
0.191009 2.536533 0.579473
0.561728 0.500807 0.471727
0.499120 0.996162 0.843632
0.940647 28.314644 0.359578
0.560318 19.530383 0.702120
0.163499 24.648386 0.052943
0.537381 28.297836 0.376382
0.264307 4.948760 0.943878
0.278961 22.080853 0.315593
0.287519 29.354490 0.621247
0.496251 15.131751 0.226997
0.917166 3.970250 0.452784
0.366578 20.325276 0.584390
0.859689 14.975700 0.853174
0.556528 22.416997 0.637496
0.610051 24.880458 0.356357
0.687082 29.043222 0.697630
0.344770 23.901199 0.027556
0.128353 12.909967 0.154747
0.716960 19.408840 0.181139
0.286837 7.175855 0.984689
0.168134 0.984198 0.712967
0.546833 29.381484 0.103550
0.738802 19.904741 0.923722
0.887563 17.780172 0.440009
0.062478 12.188332 0.108586
0.141495 12.254787 0.247805
0.739461 23.361997 0.373511
0.854382 8.663058 0.370555
0.841846 15.017303 0.902506
0.214458 11.825333 0.733115
0.042064 5.231144 0.915928
0.410312 3.787514 0.976369
0.995429 25.450688 0.628519
0.610475 4.801408 0.438879
0.215332 26.541202 0.865568
0.127895 13.810495 0.195401
0.637274 9.081731 0.013924
0.901691 8.213917 0.160568
0.034826 17.658878 0.061463
0.458063 23.780552 0.749581
0.036163 9.912786 0.190846
0.033158 16.470220 0.788049
0.853914 1.608756 0.543974
0.010228 19.913714 0.111453
0.279408 28.471934 0.217464
0.971010 23.774444 0.323714
0.616424 23.136695 0.844279
0.851659 7.292566 0.174726
0.931883 14.225105 0.881149
0.894770 21.596790 0.764559
0.706811 20.588515 0.848994
0.974474 20.464372 0.235771
0.399346 18.397951 0.775750
0.868096 28.231123 0.111814
0.903597 7.787453 0.565408
0.975202 25.474092 0.327692
0.103103 20.778032 0.457071
0.715091 20.182857 0.018756
0.368935 14.974491 0.484955
0.787720 3.316511 0.534917
0.581016 21.671090 0.355129
0.925142 17.319666 0.947559
0.584934 6.181236 0.801525
0.811805 17.207307 0.670924
0.473784 16.867848 0.099261
0.791814 15.616189 0.743869
0.713608 6.743698 0.025025
0.170329 5.951780 0.756768
0.833476 29.737697 0.476248
0.103642 16.418814 0.073592
0.182448 17.324936 0.752274
0.820924 16.564690 0.577021
0.039124 4.353047 0.806803
0.347656 10.634176 0.842858
0.551766 4.536227 0.825872
0.356552 9.732525 0.858872
0.928039 22.020909 0.731710
0.051664 12.235829 0.146284
0.693916 6.064414 0.397821
0.262479 21.043612 0.824480
0.229868 22.219342 0.922222
0.353720 10.838136 0.671609
0.854153 24.041107 0.271704
0.599993 17.004079 0.676683
0.098083 21.357367 0.057577
0.928914 11.523459 0.411079
0.894122 9.055265 0.401629
0.065463 29.950426 0.866463
0.637471 22.715451 0.222292
0.595935 13.004938 0.204103
0.553124 22.348417 0.857690
0.662336 18.777343 0.117414
0.207493 0.131418 0.046398
0.238251 10.700303 0.771730
0.224744 24.622086 0.630899
0.245912 21.370745 0.870812
0.400715 3.642445 0.037506
0.129886 15.252835 0.817373
0.866903 24.963574 0.682404
0.162529 8.701150 0.255544
0.932329 1.294536 0.380366
0.875275 5.630126 0.348190
0.554999 6.345412 0.890554
0.745820 2.333008 0.621571
0.488388 23.091154 0.405396
0.060367 18.967605 0.459137
0.318534 2.426324 0.287719
0.541066 27.720451 0.685565
0.329438 16.884915 0.023842
0.597687 23.476164 0.739699
0.958744 7.042109 0.686927
0.201199 0.660869 0.933346
0.851666 2.422651 0.861423
0.094132 5.933245 0.625473
0.596346 23.212247 0.344362
0.014733 3.020641 0.834602
0.868768 15.307326 0.792061
0.097713 26.881425 0.217582
0.844943 19.208863 0.841042
0.592397 21.363943 0.905815
0.428929 26.077577 0.483212
0.480011 25.767007 0.841574
0.731618 0.413774 0.173915
0.538337 1.227699 0.023712
0.241438 14.997058 0.433527
0.511325 18.589612 0.889500
0.364777 5.807860 0.750881
0.366138 1.696248 0.267502
0.156381 8.612696 0.821203
0.874634 24.085503 0.952989
0.998952 12.674599 0.662957
0.303298 22.501386 0.749131
0.072923 8.278152 0.437309
0.565109 7.691532 0.277088
0.192813 7.656588 0.185504
0.798986 15.712836 0.452421
0.263971 26.716855 0.512666
0.653994 2.820973 0.235732
0.846658 8.048932 0.953480
0.817693 16.303671 0.543993
0.844295 26.228584 0.055052
0.130199 18.454175 0.100934
0.604764 22.565976 0.992812
0.926895 9.908274 0.937054
0.652525 19.881588 0.352184
0.149876 23.219098 0.940237
0.938852 4.593417 0.890030
0.676475 5.960961 0.426946
0.870003 15.784329 0.861537
0.281732 11.713178 0.550195
0.535319 1.083717 0.177509
0.335732 22.895902 0.970877
0.943898 19.416970 0.135890
0.425086 9.372286 0.503250
0.398416 17.830220 0.008068
0.390550 11.426076 0.972400
0.965612 13.389928 0.727248
0.255461 5.513892 0.844593
0.194082 4.478390 0.568255
0.752981 23.357917 0.838188
0.051588 18.063374 0.563257
0.936566 6.364329 0.164892
0.414134 0.766840 0.076889
0.196258 14.480275 0.070399
0.419651 19.582047 0.102359
0.780419 18.181669 0.827014
0.799879 28.044028 0.014728
0.216134 22.159519 0.959293
0.628654 24.419399 0.471571
0.360631 13.778569 0.107473
0.457212 17.886124 0.229217
0.400208 2.575756 0.518069
0.246479 25.875245 0.911299
0.332802 6.973130 0.357538
0.481377 14.214737 0.385404
0.319490 3.968374 0.104662
0.321042 10.829114 0.113859
0.858223 6.988914 0.203793
0.793818 7.610870 0.829270
0.830100 16.039030 0.358917
0.650407 23.034755 0.677917
0.261073 18.198787 0.917040
0.723311 29.911181 0.933165
0.256015 9.271710 0.373741
0.908542 26.789417 0.157714
0.634863 27.906059 0.819860
0.468734 17.732540 0.675922
0.295971 17.936878 0.758669
0.073269 11.945083 0.057286
0.873338 26.083348 0.092827
0.689265 4.136736 0.189841
0.419591 19.530470 0.976403
0.760395 1.384076 0.494991
0.689810 25.373300 0.880912
0.734117 8.725573 0.803566
0.721893 22.158285 0.868583
0.988774 8.761705 0.420419
0.945931 13.723464 0.635007
0.457759 29.596365 0.873692
0.646766 2.958975 0.853159
0.966428 23.925196 0.147548
0.611341 22.146524 0.745306
0.746887 0.533001 0.703913
0.068529 10.008652 0.478595
0.162048 8.063295 0.276632
0.355179 23.325550 0.294387
0.759117 24.259073 0.399383
0.037107 13.792776 0.436880
0.006856 3.427983 0.721057
0.469361 16.582156 0.603653
0.736949 22.573431 0.955743
0.053370 22.157658 0.547833
0.648628 22.138394 0.547992
0.181485 20.807904 0.762080
0.650397 5.127138 0.303840
0.008057 14.060776 0.664178
0.807210 7.878598 0.388512
0.872165 23.688395 0.407325
0.859625 6.846971 0.541709
0.981570 13.942789 0.829304
0.255431 14.823114 0.440521
0.351722 16.374558 0.242200
0.923097 6.518808 0.013401
0.867049 26.281420 0.214697
0.563204 5.913703 0.480752
0.021323 22.104101 0.289356
0.389048 0.347854 0.552275
0.374281 23.360848 0.749297
0.554108 19.609609 0.891827
0.672396 5.162962 0.975364
0.742598 2.379048 0.553992
0.224300 23.827883 0.858214
0.903896 17.861146 0.107120
0.944084 0.105172 0.601086
0.089820 13.893450 0.556133
0.388501 2.165879 0.311647
0.062206 15.974430 0.553728
0.410774 18.154379 0.291933
0.328272 24.690428 0.314967
0.935244 3.201953 0.655931
0.457861 15.591011 0.877612
0.548571 27.589744 0.823102
0.321413 19.942268 0.540687
0.866557 2.006793 0.302355
0.778965 20.696943 0.692682
0.508835 16.778055 0.970108
0.252398 17.251117 0.070643
0.257398 24.123790 0.645564
0.129663 28.159904 0.696786
0.404667 24.216521 0.011263
0.025870 23.802910 0.586630
0.943970 21.049323 0.778135
0.892902 27.994577 0.355046
0.359988 14.109113 0.431080
0.516549 25.789888 0.872480
0.170776 29.234357 0.009565
0.446974 20.262120 0.140031
0.671484 0.525513 0.634812
0.837481 23.570212 0.160168
0.896436 27.807802 0.606265
0.305580 15.106968 0.325591
0.144504 4.746045 0.195987
0.392579 15.700578 0.837028
0.827322 14.176386 0.749004
0.571896 29.563919 0.344240
0.266401 18.679426 0.310117
0.165298 20.549457 0.564618
0.262339 26.964300 0.974007
0.706721 14.522160 0.166108
0.877876 16.446784 0.496992
0.014510 24.886166 0.313388
0.719160 13.591554 0.085463
0.197227 25.246250 0.277244
0.034201 11.865061 0.428994
0.336385 14.147383 0.933398
0.189203 23.690390 0.296893
0.635070 7.535971 0.335010
0.941552 24.462629 0.219867
0.198215 6.890781 0.111298
0.471064 21.152362 0.722932
0.044731 11.568911 0.820083
0.316056 17.604030 0.067931
0.365176 25.794948 0.258558
0.897326 18.830068 0.076576
0.596994 0.264372 0.834950
0.477710 3.423068 0.236298
0.972717 13.225102 0.423506
0.453857 5.691757 0.054498
0.540763 23.567717 0.743177
0.356509 13.792342 0.292034
0.947596 27.738646 0.403465
0.369587 24.323810 0.692070
0.594014 16.895359 0.553439
0.700789 4.141833 0.061540
0.680199 23.402155 0.164158
0.341327 8.803690 0.192757
0.440756 15.406734 0.855657
0.742008 23.537069 0.477383
0.959032 8.066489 0.605205
0.223718 15.872035 0.542884
0.463156 19.273155 0.803166
0.654049 14.036618 0.622515
0.778484 13.903123 0.561346
0.451662 9.852094 0.307221
0.372792 18.037980 0.964188
0.183023 16.586614 0.487659
0.870398 8.704122 0.176430
0.941618 21.301621 0.672942
0.923033 3.072569 0.475383
0.683335 11.451083 0.179534
0.704252 17.011408 0.864781
0.655473 14.890332 0.091206
0.369211 0.729530 0.556962
0.209764 7.231560 0.759516
0.477205 8.758677 0.956215
0.649500 1.204485 0.260070
0.605207 17.158527 0.250572
0.825629 21.410973 0.585792
0.912354 2.964086 0.436638
0.491218 19.785525 0.722083
0.697174 25.113045 0.057476
0.266882 21.541588 0.656197
0.721510 25.110792 0.378039
0.283328 9.199141 0.387025
0.632407 16.430343 0.111409
0.325514 7.304522 0.568307
0.472680 21.745681 0.141258
0.497026 6.742391 0.873716
0.790185 10.007995 0.484516
0.795052 9.807294 0.958458
0.233731 12.054619 0.529759
0.433960 14.534720 0.903201
0.673185 8.132268 0.712167
0.024053 7.700170 0.252975
0.761375 18.946397 0.442998
0.671267 6.073205 0.819076
0.387459 11.341828 0.754728
0.332713 4.664408 0.863460
0.692869 15.587637 0.201171
0.853461 4.656561 0.188340
0.803705 6.439607 0.052291
0.298340 23.660948 0.444061
0.522320 5.604655 0.850598
0.323038 14.215603 0.770589
0.309979 24.587144 0.279757
0.365316 10.528958 0.789503
0.552745 12.540538 0.730962
0.473535 27.311240 0.706481
0.101806 8.123609 0.508232
0.085462 3.164390 0.706268
0.236012 13.972120 0.654450
0.537956 26.964593 0.971960
0.795145 4.807759 0.985809
0.722232 17.878864 0.678354
0.914738 23.695328 0.076335
0.581047 25.376178 0.781603
0.473324 23.806826 0.158723
0.405512 0.154756 0.228639
0.076065 12.303222 0.172811
0.060270 13.256995 0.150517
0.328861 18.699248 0.071636
0.777764 29.925771 0.158168
0.603128 28.764987 0.232790
0.554818 0.677710 0.591143
0.433725 19.864027 0.019385
0.975602 4.809880 0.869704
0.050528 19.743006 0.964821
0.161205 15.364602 0.278618
0.663926 17.377373 0.089323
0.794299 14.376814 0.169160
0.429867 13.344598 0.869362
0.625621 8.528942 0.708208
0.914187 26.675490 0.379031
0.393075 27.958641 0.860492
0.821075 9.708117 0.510639
0.829972 14.719327 0.647276
0.613891 8.551972 0.947583
0.050760 28.991999 0.367270
0.694440 13.866696 0.453462
0.634014 3.715891 0.984581
0.649322 28.180797 0.477338
0.858768 15.811210 0.040145
0.731185 14.311579 0.756356
0.975111 22.327671 0.689925
0.803985 7.057104 0.666744
0.423244 6.274783 0.279723
0.408207 15.497948 0.807811
0.692064 7.230547 0.115936
0.188755 4.503629 0.978836
0.366883 7.041078 0.320323
0.401002 28.033026 0.459961
0.364701 14.872047 0.136540
0.727652 27.385442 0.950773
0.451443 4.162106 0.244899
0.692661 6.563905 0.684836
0.344082 28.296480 0.059219
0.007095 9.632907 0.260335
0.976479 21.099024 0.857961
0.414527 9.636922 0.380511
0.177307 12.470215 0.526679
0.900702 4.465695 0.541430
0.399692 10.502448 0.205316
0.721282 16.123601 0.130876
0.535703 2.383291 0.966145
0.265979 13.449200 0.331550
0.391300 27.003801 0.092013
0.352752 6.130140 0.509224
0.205271 15.398795 0.161524
0.147442 10.137279 0.083851
0.050690 22.538078 0.280357
0.128666 9.876955 0.230062
0.101462 21.096196 0.940955
0.660367 14.953477 0.755682
0.429290 2.800623 0.921706
0.822188 19.407139 0.626999
0.155622 5.552377 0.003835
0.661441 20.218341 0.758811
0.483023 27.314758 0.275490
0.658350 16.435459 0.836112
0.596218 13.318103 0.949544
0.599633 2.002068 0.641296
0.215138 25.688430 0.090167
0.280248 17.800141 0.727461
0.916897 8.805362 0.432869
0.798427 25.703558 0.435242
0.528952 23.180276 0.161908
0.658151 0.489762 0.757487
0.111634 7.103895 0.986624
0.091860 28.627188 0.498101
0.738779 2.420451 0.759698
0.575509 28.005810 0.805376
0.311326 22.797197 0.766829
0.357556 27.536465 0.132137
0.220200 6.349791 0.448318
0.536858 21.797755 0.043600
0.481682 14.640763 0.704812
0.044587 18.827094 0.463144
0.811219 13.714549 0.536162
0.110963 1.636963 0.450341
0.726860 12.334481 0.193031
0.129775 24.218847 0.372511
0.292633 15.200654 0.548924
0.205369 9.722388 0.356766
0.330173 12.804719 0.482254
0.601209 13.958509 0.107497
0.116112 15.391546 0.403095
0.192176 7.006672 0.968517
0.567767 16.895988 0.521431
0.685532 16.602581 0.877636
0.797405 12.626952 0.966555
0.454403 5.101349 0.124130
0.237256 28.218738 0.952353
0.352514 7.775813 0.799032
0.747837 2.017521 0.144954
0.344361 13.984477 0.859342
0.453797 12.138455 0.645654
0.918212 19.651284 0.162497
0.120440 20.941652 0.052481
0.509876 14.542305 0.523311
0.354688 17.306962 0.283347
0.351710 5.779258 0.954009
0.700316 5.314445 0.901738
0.787687 28.662080 0.547105
0.338314 28.566436 0.128719
0.416393 26.959815 0.969467
0.433035 26.546735 0.002595
0.719050 2.241137 0.325407
0.709110 12.201617 0.618778
0.716206 16.974494 0.117380
0.852215 26.006498 0.123073
0.489328 18.915622 0.461689
0.343640 3.550238 0.675871
0.254381 29.968036 0.306100
0.464456 20.072496 0.572167
0.126857 3.628697 0.450970
0.203683 24.686050 0.509704
0.508326 26.139199 0.474188
0.275399 28.799468 0.245033
0.943141 24.717181 0.586387
0.602601 16.117386 0.661142
0.367406 0.853250 0.010061
0.277007 16.779352 0.841151
0.084168 4.941120 0.533767
0.493114 9.236602 0.655580
0.447720 7.452856 0.824374
0.030609 7.767536 0.777204
0.649300 7.773407 0.985622
0.461023 16.463848 0.196324
0.868827 14.040850 0.308429
0.808186 5.754594 0.169361
0.484655 5.842840 0.313356
0.833147 1.754531 0.269547
0.680775 10.319853 0.260074
0.967180 12.922568 0.033951
0.427409 23.679039 0.700310
0.586740 7.680453 0.244567
0.581597 23.301084 0.695454
0.636779 4.064500 0.487093
0.789895 15.135343 0.045664
0.610886 24.819306 0.297382
0.078482 10.807220 0.079849
0.503285 7.971065 0.835812
0.666831 5.322650 0.605623
0.568784 0.214539 0.508914
0.463417 17.307045 0.099288
0.656350 17.971529 0.646930
0.401155 20.284127 0.395969
0.230959 25.444541 0.491911
0.777506 16.526770 0.939225
0.194817 20.359690 0.052264
0.830741 29.557211 0.946856
0.755497 11.957550 0.131888
0.966546 17.163383 0.904576
0.673231 5.402172 0.524591
0.209862 19.987051 0.818927
0.238050 1.117025 0.860949
0.568568 29.875900 0.434431
0.236275 13.249050 0.845523
0.146092 1.639792 0.059073
0.516006 8.975060 0.976489
0.599753 6.942258 0.130702
0.446818 20.128543 0.070819
0.910001 27.366598 0.332628
0.053687 24.351048 0.219701
0.831875 21.219146 0.274348
0.943910 18.118868 0.970340
0.241097 21.882680 0.180788
0.161081 13.879244 0.108841
0.675773 12.145225 0.793259
0.195638 20.669860 0.139378
0.205684 24.204247 0.969220
0.677288 19.980773 0.240781
0.387530 10.255008 0.325534
0.444410 22.202867 0.912951
0.941769 3.364416 0.722104
0.896375 10.957923 0.224079
0.973442 2.669863 0.119817
0.443533 9.568351 0.610237
0.975203 23.723537 0.237477
0.583854 13.638139 0.648799
0.436451 8.741716 0.054497
0.721469 3.962818 0.838588
0.505445 18.186638 0.477597
0.824486 26.996223 0.398280
0.921614 5.370146 0.183562
0.038099 4.719913 0.753230
0.387439 21.339881 0.169351
0.462366 17.159278 0.543811
0.485693 20.311483 0.002295
0.100396 3.274401 0.624144
0.281627 1.078736 0.901172
0.504005 23.356625 0.977785
0.365349 25.101177 0.180415
0.545615 23.105725 0.384116
0.826383 21.034873 0.429160
0.023766 24.753205 0.181775
0.513322 5.724078 0.600449
0.234769 18.998955 0.163922
0.045038 13.878270 0.054165
0.381444 20.173583 0.397494
0.126660 29.318246 0.713830
0.375385 6.220478 0.639479
0.304096 12.449892 0.619418
0.331344 29.794091 0.959343
0.278773 16.212253 0.608713
0.804128 18.089627 0.723528
0.221987 0.555291 0.191271
0.298562 19.221720 0.518613
0.242524 4.679320 0.739451
0.854552 16.237241 0.125944
0.093103 2.795119 0.297738
0.436732 27.969567 0.590039
0.264303 0.625398 0.476208
0.919861 5.775226 0.828078
0.844647 19.636602 0.905966
0.696751 12.185830 0.344716
0.274674 18.303091 0.353293
0.754433 23.968530 0.310265
0.796738 19.982934 0.409497
0.023213 1.328633 0.820238
0.693292 7.758319 0.477090
0.280382 25.550136 0.817615
0.059721 26.865364 0.415711
0.202414 0.342208 0.275038
0.526162 15.391574 0.550891
0.998349 2.416577 0.378630
0.626697 0.161139 0.925023
0.758638 4.399088 0.433307
0.433148 17.392841 0.324562
0.055775 29.557020 0.346839
0.157007 15.842377 0.874633
0.838178 26.263774 0.963580
0.442478 11.780630 0.316869
0.146774 28.639355 0.031305
0.885290 20.136706 0.781438
0.016691 25.400931 0.706088
0.865493 13.591479 0.957992
0.376744 10.589887 0.896296
0.792163 12.940715 0.398680
0.238319 4.196832 0.906519
0.212060 20.776401 0.944480
0.390727 0.591913 0.160089
0.396427 7.027617 0.431326
0.528607 9.284199 0.426932
0.856097 26.035565 0.597811
0.959487 13.079124 0.227033
0.654383 22.581749 0.382505
0.153841 19.916862 0.800641
0.605042 10.451518 0.915392
0.487574 9.828184 0.353319
0.970756 7.067488 0.752906
0.700376 7.724197 0.379950
0.839312 23.569013 0.046388
0.636306 2.129076 0.015860
0.691852 29.950253 0.257798
0.506743 5.725496 0.321797
0.024565 8.104323 0.556083
0.249147 9.413883 0.987656
0.244417 3.947500 0.034004
0.750875 25.933269 0.101907
0.768493 3.459501 0.620182
0.140938 24.181765 0.431947
0.357502 17.665271 0.544625
0.390446 23.005377 0.214815
0.027316 15.620653 0.696076
0.630651 9.527640 0.337039
0.292052 0.162587 0.943019
0.336933 29.271975 0.292373
0.405743 27.627736 0.702489
0.309203 12.188653 0.189757
0.160252 26.839295 0.428949
0.343991 26.921174 0.098418
0.514128 11.986877 0.733488
0.112640 28.836739 0.197874
0.427580 13.162085 0.371428
0.086290 5.128123 0.256614
0.871582 26.201037 0.459886
0.546561 20.316574 0.782782
0.478689 2.413041 0.278567
0.777244 15.161986 0.127357
0.239224 2.829668 0.185285
0.052046 28.364991 0.251272
0.452997 5.477202 0.120105
0.259077 3.253937 0.902766
0.524365 9.998107 0.871543
0.497475 8.937637 0.606959
0.084993 13.360875 0.916901
0.922938 23.841262 0.720462
0.937339 11.150730 0.112620
0.802631 25.153118 0.681891
0.639671 21.653508 0.789988
0.310148 24.888113 0.192889
0.045559 12.615557 0.667483
0.358697 26.628103 0.939280
0.520287 11.464030 0.222190
0.465241 27.375054 0.186350
0.956967 9.442134 0.703297
0.847492 10.014746 0.927304
0.762078 23.716137 0.977539
0.299096 29.865198 0.658860
0.374554 7.755274 0.139138
0.075512 6.240012 0.696538
0.568557 18.905450 0.705539
0.764108 0.109053 0.916403
0.490966 22.828420 0.238429
0.520972 2.010164 0.879525
0.415440 22.390351 0.507332
0.693341 27.269680 0.823615
0.418734 8.574363 0.777145
0.509584 23.569520 0.858328
0.894692 29.009532 0.345296
0.363642 2.346960 0.696434
0.664240 10.020728 0.150641
0.536007 11.128962 0.430807
0.790443 23.630245 0.300143
0.824096 9.931597 0.786603
0.282813 26.890389 0.405211
0.197446 21.279285 0.998119
0.802868 3.275948 0.585652
0.844484 1.167684 0.592906
0.393485 16.229167 0.976198
0.682741 28.539018 0.491774
0.158034 28.446087 0.159465
0.656478 24.409046 0.194890
0.446116 15.940231 0.185448
0.594038 6.293672 0.983422
0.657253 7.289065 0.181477
0.887733 17.398271 0.262655
0.668749 8.987091 0.155330
0.424222 20.624155 0.032942
0.327880 19.893442 0.536361
0.937552 23.819352 0.493478
0.354837 9.803631 0.930532
0.285274 23.211188 0.427717
0.289410 25.166076 0.431742
0.488521 23.959606 0.159736
0.584953 11.378876 0.363919
0.824566 28.314039 0.240349
0.050529 23.388501 0.174859
0.635347 20.263900 0.771826
0.045257 14.704297 0.220186
0.447363 4.203748 0.712968
0.670654 17.033103 0.640621
0.300440 24.325115 0.243076
0.015786 16.181663 0.450148
0.946743 19.060996 0.834296
0.379740 22.358821 0.039354
0.651299 12.941007 0.054359
0.607034 11.284309 0.544837
0.323117 3.135088 0.044821
0.368053 23.559488 0.295626
0.065611 9.326215 0.008614
0.455017 5.133409 0.368151
0.731624 3.808691 0.395060
0.949101 2.829678 0.967453
0.220148 9.532644 0.278946
0.107909 13.999494 0.217326
0.842176 4.718323 0.857866
0.670596 19.623941 0.113089
0.519738 19.801103 0.836392
0.087433 7.727635 0.997336
0.660234 11.361350 0.596414
0.591935 23.901849 0.856823
0.302404 8.810789 0.727255
0.242818 7.950720 0.698245
0.029506 0.276802 0.655613
0.869526 8.031953 0.804297
0.566991 6.345970 0.920701
0.348164 27.511769 0.829331
0.077698 23.225160 0.176804
0.611832 7.735355 0.660280
0.812562 28.759651 0.728225
0.801793 9.788506 0.078640
0.864692 17.222656 0.695492
0.813994 18.918505 0.708102
0.677159 29.888126 0.546071
0.068635 9.854785 0.841020
0.839897 20.207912 0.510878
0.871009 10.498944 0.331753
0.099083 18.775709 0.789764
0.802563 24.293219 0.603132
0.823643 4.220175 0.173327
0.694847 11.252380 0.470502
0.703045 8.309454 0.776838
0.316257 8.743454 0.179005
0.038102 13.290627 0.450979
0.271882 24.625182 0.934972
0.096622 7.428418 0.355787
0.919431 25.975582 0.753189
0.912045 19.933962 0.204199
0.249415 23.256954 0.756449
0.584680 17.036043 0.374633
0.954146 27.241249 0.014690
0.823490 11.745770 0.823347
0.189952 9.404862 0.602052
0.331777 1.824078 0.966273
0.281901 13.103716 0.215353
0.986962 27.996586 0.472828
0.396274 8.344620 0.555951
0.721268 9.661960 0.869180
0.641462 18.148043 0.577581
0.675856 21.996931 0.110404
0.024894 13.326451 0.024913
0.668747 16.079659 0.412749
0.422893 20.047031 0.351855
0.985489 5.255999 0.152980
0.478371 23.858019 0.298156
0.682681 29.595944 0.389665
0.891475 17.412945 0.281334
0.901186 26.600545 0.126041
0.839993 15.284192 0.550244
0.473788 24.482561 0.647086
0.119733 9.420188 0.734863
0.274079 20.897793 0.072147
0.519926 1.535142 0.005761
0.891068 1.789349 0.800577
0.324986 27.900319 0.469894
0.051793 10.821388 0.099223
0.937809 16.338027 0.511699
0.282220 24.108874 0.723445
0.251323 27.687228 0.198488
0.773316 2.057886 0.693100
0.258201 23.821978 0.822051
0.691555 9.053969 0.959983
0.513649 6.006994 0.456311
0.967939 14.114266 0.939587
0.612007 10.036051 0.755996
0.649211 18.318240 0.451624
0.180257 14.797930 0.930233
0.064977 16.222135 0.178044
0.300621 28.417699 0.301119
0.878945 3.670109 0.044954
0.532221 24.476860 0.230788
0.270453 12.202491 0.329755
0.538867 24.238144 0.219108
0.395764 11.913721 0.052627
0.862042 17.508815 0.858454
0.871928 11.220098 0.059748
0.823130 17.334543 0.739194
0.579713 3.020678 0.922535
0.788447 25.004186 0.628499
0.602001 18.938884 0.912525
0.118286 16.457327 0.521097
0.009854 29.068510 0.076050
0.337964 13.136461 0.451398
0.575109 16.741792 0.162643
0.156816 7.897203 0.181797
0.898048 18.617920 0.001976
0.928934 15.396194 0.927183
0.889270 19.371334 0.374909
0.219303 3.972585 0.902903
0.025331 26.270543 0.078958
0.167368 12.222167 0.272106
0.886174 9.275984 0.985634
0.536114 12.540104 0.972449
0.766032 29.700756 0.822457
0.078820 16.010120 0.654993
0.575586 5.274174 0.934678
0.272646 29.968513 0.211533
0.055242 15.841078 0.624943
0.001542 28.821150 0.872952
0.807154 11.138988 0.214267
0.088194 14.798792 0.619469
0.140098 13.837413 0.714086
0.237899 24.026513 0.893698
0.453289 25.177960 0.566212
0.648239 16.441232 0.377920
0.469905 12.391288 0.315518
0.927132 22.130775 0.405818
0.036804 6.098540 0.771693
0.248747 22.790330 0.229445
0.369184 15.143044 0.973468
0.817161 20.746874 0.798802
0.790567 26.552593 0.087725
0.881998 13.102758 0.517196
0.928118 12.503666 0.607810
0.643059 24.996634 0.466341
0.367150 28.569380 0.356027
0.366530 26.817473 0.341070
0.811054 26.973091 0.247500
0.355734 22.577913 0.384242
0.898356 28.955779 0.062230
0.847140 12.004222 0.751217
0.261338 0.450480 0.107463
0.107549 21.134679 0.706842
0.660320 24.822110 0.632446
0.499693 11.228881 0.699126
0.571746 25.950708 0.854836
0.674465 28.473259 0.630118
0.933556 25.088944 0.545111
0.287241 3.340668 0.291014
0.392426 13.354269 0.624462
0.197357 26.994537 0.776819
0.326829 8.282976 0.017632
0.808649 0.423113 0.400507
0.773507 13.972218 0.384630
0.457256 26.169347 0.636621
0.738025 8.035168 0.511170
0.673630 8.971621 0.192587
0.867913 28.878776 0.828118
0.553948 14.283627 0.852340
0.217789 14.461703 0.748039
0.859298 19.156660 0.867131
0.915225 14.452728 0.652061
0.090684 16.426176 0.951161
0.110008 9.324250 0.636147
0.612024 24.714847 0.824583
0.248002 14.051173 0.185843
0.418456 25.081453 0.431529
0.169511 8.520743 0.914459
0.385674 29.032960 0.289890
0.240014 21.572947 0.706442
0.673542 3.505753 0.306844
0.841052 28.628395 0.790494
0.229824 15.683406 0.172161
0.917721 0.034787 0.053131
0.497350 17.279045 0.490811
0.697423 26.893908 0.813558
0.821008 16.720502 0.479471
0.578310 19.313027 0.164437
0.347246 19.461479 0.132031
0.650272 18.020574 0.701681
0.197974 20.010991 0.261953
0.664254 24.956109 0.602306
0.559311 16.082780 0.525949
0.057079 15.449821 0.175952
0.755400 13.398204 0.061974
0.055329 29.678680 0.358534
0.607604 17.384498 0.863346
0.582909 25.984451 0.530133
0.872141 22.443967 0.792684
0.234780 1.142849 0.486094
0.796786 2.915007 0.551380
0.624439 19.709635 0.225914
0.847515 21.697337 0.654714
0.573595 9.652487 0.525276
0.892533 29.847472 0.411158
0.445479 0.585203 0.081056
0.454871 14.701666 0.068901
0.292295 5.749004 0.043116
0.592634 22.485092 0.694931
0.600142 2.701453 0.334514
0.756974 15.850908 0.860922
0.123212 5.937396 0.836730
0.597469 14.061044 0.184287
0.275362 28.776012 0.685367
0.255142 16.974717 0.139871
0.775705 29.086304 0.069816
0.656583 23.445294 0.482287
0.289743 23.694238 0.253296
0.381888 16.930765 0.032169
0.667111 9.457070 0.070711
0.375710 13.992242 0.337804
0.867451 7.447824 0.952896
0.794300 11.437785 0.913567
0.591059 16.270144 0.595510
0.183218 15.623260 0.133208
0.195219 15.654188 0.990535
0.545704 16.941740 0.676481
0.952609 26.882686 0.458548
0.843355 13.384792 0.664685
0.423054 6.835744 0.240320
0.981929 26.851685 0.638547
0.969176 29.454375 0.818312
0.944938 2.374346 0.182162
0.370224 3.656463 0.459242
0.838285 9.278644 0.569243
0.434340 4.543259 0.385202
0.144830 1.601777 0.076136
0.567418 8.095552 0.426753
0.086095 27.260897 0.887145
0.830521 27.523477 0.013765
0.713586 1.260468 0.093013
0.653564 7.122141 0.335541
0.985813 22.322224 0.266048
0.274380 19.585161 0.415819
0.523448 26.254341 0.797333
0.059179 7.342051 0.314103
0.225784 18.148658 0.547376
0.495129 1.583105 0.412582
0.130132 28.314963 0.428600
0.472557 15.668635 0.130177
0.306726 8.222538 0.043161
0.999644 18.633603 0.198792
0.710832 20.383414 0.098836
0.912850 4.987578 0.248115
0.710600 25.513244 0.410422
0.529761 25.346076 0.532074
0.146824 22.302539 0.117802
0.159811 8.541893 0.038138
0.882963 15.964909 0.386016
0.324028 10.697691 0.022783
0.219093 25.310494 0.319941
0.170058 16.043372 0.856036
0.899387 21.381539 0.913759
0.918884 29.887598 0.454431
0.172795 28.882111 0.683706
0.138115 9.883983 0.731249
0.166689 5.736711 0.800469
0.166352 8.125480 0.841369
0.974038 23.495219 0.722983
0.652779 15.953272 0.132773
0.353979 21.881345 0.528958
0.891584 15.106318 0.960615
0.147686 13.536963 0.201066
0.907707 22.198463 0.636764
0.268261 23.293383 0.304246
0.000242 23.557209 0.698541
0.199052 0.836078 0.376577
0.725034 15.276608 0.926921
0.943929 3.298321 0.219227
0.639018 24.408157 0.714994
0.495124 26.928313 0.392287
0.476914 14.080486 0.843606
0.561283 21.009568 0.929777
0.002037 11.797844 0.817061
0.964609 12.200298 0.116902
0.205496 11.612160 0.313531
0.657501 0.335871 0.061042
0.721781 25.471958 0.013520
0.256931 27.382591 0.375372
0.078301 18.682559 0.594568
0.173816 18.359473 0.769045
0.673566 9.118937 0.793713
0.085896 24.762651 0.790885
0.309805 27.270186 0.545419
0.501264 20.046271 0.882150
0.350848 25.406319 0.943302
0.422281 28.502697 0.609072
0.665185 14.510777 0.294129
0.981990 11.602121 0.993783
0.546213 3.294006 0.792731
0.627717 12.850713 0.909235
0.314283 0.380381 0.129623
0.094703 25.960110 0.193288
0.266301 22.378647 0.078694
0.655450 12.884223 0.173750
0.408959 1.910948 0.384505
0.924351 4.173192 0.296393
0.254764 28.965698 0.337030
0.984765 2.972551 0.565875
0.900401 12.455877 0.955669
0.533541 9.011835 0.915573
0.035110 5.512843 0.352338
0.724631 2.124319 0.642536
0.895581 24.033119 0.964207
0.576154 23.096636 0.613510
0.896456 10.824177 0.133000
0.177572 19.838886 0.326176
0.704339 8.999171 0.373123
0.176015 19.904948 0.509828
0.717527 25.232547 0.651917
0.335682 14.654637 0.584075
0.485630 16.362987 0.284813
0.096913 7.491302 0.186327
0.950854 18.391891 0.394122
0.188254 26.725314 0.246212
0.307745 8.136293 0.374708
0.233881 22.166807 0.284706
0.576697 28.734520 0.792893
0.633849 4.090936 0.473885
0.573034 8.519394 0.928413
0.178122 18.241407 0.265259
0.364123 3.846790 0.953959
0.476736 5.476375 0.649009
0.332604 17.972158 0.322147
0.006066 24.942230 0.862608
0.131913 25.689805 0.339064
0.552352 11.796492 0.332092
0.876255 16.935119 0.694567
0.832384 0.801919 0.430513
0.284907 7.222610 0.460478
0.022413 7.901751 0.814339
0.232868 25.939745 0.139387
0.994496 11.364212 0.893964
0.954812 9.623229 0.450349
0.558656 21.748946 0.049975
0.337825 12.763382 0.528630
0.298248 22.490221 0.932787
0.228744 17.509996 0.832686
0.228492 8.192633 0.021994
0.384752 11.580388 0.623480
0.860848 16.335827 0.481528
0.753099 3.335463 0.646888
0.163378 26.755789 0.182850
0.730918 6.955399 0.782244
0.270243 14.717491 0.299957
0.761945 25.043706 0.280205
0.623740 18.124589 0.522186
0.638807 10.041651 0.527003
0.950978 6.433280 0.800801
0.577047 23.887930 0.478655
0.109124 2.819381 0.935773
0.679797 11.401260 0.567782
0.781079 7.024578 0.045409
0.958144 18.962953 0.091790
0.772487 16.439920 0.766004
0.804406 9.138073 0.673689
0.389260 9.600366 0.860848
0.845272 16.630386 0.338636
0.144508 3.987499 0.167074
0.408948 25.417460 0.780077
0.601242 11.135066 0.582293
0.236624 1.535767 0.555952
0.624966 25.543694 0.675376
0.899400 22.210617 0.215230
0.919565 29.868175 0.115385
0.016700 4.968794 0.642912
0.219745 12.647181 0.020731
0.274895 20.844370 0.474163
0.249501 2.964354 0.487350
0.426702 29.197323 0.680928
0.813897 2.286487 0.042171
0.972635 11.291226 0.351261
0.599881 28.484948 0.419563
0.149758 13.412477 0.435940
0.371653 5.261337 0.948926
0.644465 0.765920 0.575777
0.901096 20.963788 0.631639
0.106603 17.956357 0.109271
0.513408 7.684509 0.469495
0.921590 17.554855 0.661481
0.575342 8.544385 0.728132
0.121037 0.808675 0.068974
0.334017 21.333210 0.211989
0.435841 3.015767 0.520550
0.831347 16.495380 0.514728
0.337113 19.031304 0.601731
0.818142 25.778566 0.056005
0.638440 15.336553 0.517691
0.378098 8.051729 0.815044
0.052506 3.039414 0.431225
0.334785 28.480364 0.895293
0.406583 10.855865 0.960073
0.987264 0.926479 0.607932
0.689610 12.094555 0.289873
0.623032 2.761397 0.758427
0.093443 10.309647 0.439755
0.613846 14.050895 0.768023
0.328934 22.729982 0.770227
0.854322 12.011067 0.551448
0.385667 14.826824 0.585003
0.899349 27.683483 0.631728
0.763365 12.428694 0.826487
0.169354 29.200461 0.236225
0.132480 13.418679 0.405791
0.123259 11.370945 0.442685
0.567411 12.331245 0.416921
0.525318 26.652991 0.696946
0.542059 19.216084 0.714325
0.478772 19.706515 0.219782
0.249570 11.570689 0.658555
0.225387 12.752495 0.925145
0.142873 19.455429 0.252064
0.789684 29.812276 0.582984
0.489717 0.730686 0.916582
0.849896 3.740946 0.233421
0.622040 23.863888 0.278436
0.905842 21.961626 0.211328
0.218402 4.841938 0.379141
0.278715 20.378609 0.084792
0.434868 21.598648 0.742396
0.810641 6.844834 0.755771
0.797075 1.459714 0.336276
0.896707 12.334502 0.389242
0.616174 0.316948 0.241025
0.377487 2.226620 0.880654
0.991998 26.619996 0.252996
0.268721 0.704835 0.846245
0.306869 19.168785 0.769151
0.054514 12.287376 0.044913
0.426692 20.468193 0.987649
0.833078 15.652656 0.299118
0.021885 4.758114 0.382145
0.261702 24.781128 0.553178
0.713775 19.929272 0.310759
0.584168 6.150355 0.317183
0.614829 20.907343 0.845663
0.358697 18.863030 0.644858
0.127971 0.009562 0.699372
0.454519 23.782317 0.098836
0.428880 23.559085 0.076388
0.638838 0.338565 0.551407
0.994256 21.257345 0.011773
0.744901 21.188419 0.556518
0.070269 13.377419 0.542669
0.846748 19.933968 0.170000
0.296643 14.132161 0.324525
0.830601 12.390724 0.543852
0.075164 12.862164 0.595503
0.550515 7.772861 0.738366
0.450482 13.661489 0.147900
0.915964 28.532134 0.750049
0.052731 29.406072 0.292250
0.774413 14.505327 0.787965
0.989734 9.471679 0.625437
0.113865 5.047072 0.860909
0.290755 22.287481 0.329311
0.849588 28.376018 0.306274
0.999734 0.058145 0.648537
0.597736 11.260426 0.054002
0.252438 5.093024 0.200325
0.616847 2.222895 0.871643
0.649223 18.467617 0.094509
0.357344 9.436383 0.643079
0.403802 19.161661 0.924659
0.528803 19.629450 0.079080
0.581182 11.087877 0.940212
0.157175 23.134839 0.046450
0.754963 3.909203 0.748323
0.241987 10.885986 0.849448
0.519246 13.011383 0.919498
0.207173 27.022333 0.762610
0.875618 21.765927 0.036151
0.594459 17.630776 0.406456
0.308342 2.683006 0.708158
0.299431 17.590469 0.917469
0.801725 11.092084 0.772176
0.613306 20.651690 0.008053
0.645651 0.548483 0.898042
0.443529 17.880799 0.070494
0.657258 4.151313 0.554820
0.800837 14.934768 0.768741
0.843939 13.832585 0.793425
0.981866 27.002167 0.594850
0.848825 29.531133 0.601576
0.518749 8.900603 0.140999
0.751688 11.706373 0.190971
0.394413 7.343338 0.579262
0.939428 20.198984 0.149798
0.984611 10.193467 0.238158
0.906867 15.832727 0.659493
0.869093 17.842122 0.128225
0.771080 26.231453 0.935147
0.856564 28.126865 0.984962
0.243726 23.063086 0.454491
0.554743 6.126916 0.117914
0.285539 17.596685 0.442764
0.217501 27.541898 0.490988
0.825044 21.764232 0.231788
0.575733 2.312292 0.318211
0.998504 8.458528 0.514382
0.644740 16.252734 0.621864
0.398535 4.411582 0.705160
0.411655 26.833002 0.785113
0.363190 19.148393 0.456770
0.091464 9.464870 0.094737
0.962085 8.895860 0.180758
0.116898 26.261642 0.552913
0.154188 8.095702 0.981494
0.194800 12.167196 0.133291
0.979971 20.185482 0.048609
0.950187 29.621033 0.931642
0.021993 0.496346 0.836394
0.170755 17.759601 0.471172
0.073025 20.370146 0.703006
0.263860 8.659953 0.800823
0.863070 10.685105 0.430420
0.601462 12.344314 0.968544
0.155713 18.984437 0.495038
0.964921 14.654057 0.108467
0.502541 17.217492 0.483822
0.322614 16.044256 0.725827
0.034719 27.204487 0.451045
0.655651 26.515831 0.002861
0.452350 15.134129 0.676263
0.785814 20.822129 0.161148
0.113044 2.582284 0.203912
0.537668 5.472166 0.063774
0.009658 20.552655 0.414458
0.003818 23.001297 0.823808
0.624094 4.518508 0.964907
0.702396 9.436090 0.613800
0.070461 16.693163 0.412154
0.309352 0.690420 0.552333
0.522083 2.646482 0.441045
0.296433 15.365230 0.810228
0.136354 0.956925 0.029503
0.520579 23.976251 0.547352
0.311005 7.965597 0.595617
0.891846 19.942823 0.784547
0.317949 6.765956 0.179129
0.993590 3.410837 0.758972
0.239869 5.904754 0.052482
0.132330 14.969435 0.714987
0.956215 19.533864 0.692366
0.587677 12.068562 0.123188
0.942943 24.889352 0.998141
0.251496 16.376726 0.836735
0.002546 22.836777 0.834769
0.121380 0.630051 0.372665
0.050555 21.438836 0.946639
0.384502 3.634188 0.847597
0.822742 11.250141 0.017090
0.496368 3.316526 0.489170
0.564325 11.123995 0.204095
0.988520 25.208244 0.279773
0.235676 3.955474 0.219999
0.845880 8.934736 0.200857
0.269403 4.570740 0.206725
0.931025 14.107261 0.479886
0.072254 25.392937 0.774705
0.969037 26.222585 0.643030
0.091852 11.372478 0.769217
0.281037 15.894118 0.116767
0.779197 29.584546 0.973163
0.274667 18.927154 0.293083
0.043793 29.222941 0.243032
0.269621 13.067580 0.507356
0.613951 1.063979 0.038509
0.576655 20.194166 0.745470
0.753417 27.715490 0.596392
0.268629 19.457622 0.845018
0.079077 13.222827 0.493776
0.007958 27.601076 0.546345
0.525681 2.653962 0.151223
0.631500 18.099995 0.405524
0.833291 0.099462 0.450801
0.327311 6.161573 0.602984
0.333694 13.339784 0.484210
0.455483 27.015010 0.714955
0.607142 17.599827 0.400779
0.384959 12.160028 0.997917
0.201746 11.555128 0.118149
0.656135 0.610463 0.045081
0.438091 15.507211 0.022494
0.137206 7.397728 0.796791
0.918860 3.115462 0.677712
0.500136 25.277045 0.941020
0.466465 27.904840 0.178238
0.135582 21.310815 0.282017
0.043086 28.658141 0.926334
0.830014 25.796168 0.230706
0.550148 9.165097 0.506747
0.070965 5.648560 0.041474
0.002492 11.729058 0.619742
0.118732 0.315459 0.167876
0.321290 10.132824 0.730661
0.190665 23.243145 0.179067
0.993737 26.494424 0.588096
0.663146 18.425898 0.149559
0.604423 27.471913 0.285304
0.980040 26.121608 0.594598
0.604825 20.250870 0.901715
0.121449 10.233506 0.658327
0.211322 4.333279 0.733725
0.379530 15.650611 0.861008
0.126827 12.010786 0.194620
0.910346 4.638134 0.210263
0.248270 12.463402 0.534532
0.566336 11.953831 0.044238
0.579095 6.732929 0.298935
0.002319 15.599064 0.385000
0.340206 29.369894 0.465361
0.189713 7.437135 0.672682
0.979047 9.151179 0.929427
0.454946 28.461828 0.842594
0.902559 1.587673 0.867196
0.305691 12.716334 0.767687
0.349167 1.948035 0.282747
0.478362 23.088522 0.482142
0.898045 16.982748 0.251510
0.416121 11.037810 0.076375
0.805010 26.665600 0.442816
0.718214 28.479388 0.807921
0.677986 0.475936 0.487762
0.971244 8.274362 0.794447
0.727820 24.233969 0.363703
0.352415 27.301290 0.641657
0.811318 14.505025 0.924328
